1.07450980392 1.12156862745 1.12941176471 1.05882352941 0.980392156863 0.988235294118 1.14509803922 1.32549019608 1.48235294118 1.63137254902 1.82745098039 1.58431372549 1.15294117647 1.2 1.37254901961 1.67058823529 1.73333333333 1.70980392157 1.66274509804 1.71764705882 1.6862745098 1.70980392157 1.67058823529 1.65490196078 1.67058823529 1.65490196078 1.70980392157 1.71764705882 1.46666666667 1.22352941176 0.996078431373 0.894117647059 1.12156862745 1.10588235294 1.09803921569 1.1137254902 1.09803921569 1.07450980392 1.09019607843 1.07450980392 1.05098039216 1.12156862745 1.0431372549 1.08235294118 1.03529411765 0.81568627451 0.556862745098 0.509803921569 0.533333333333 0.533333333333 0.470588235294 0.635294117647 0.996078431373 1.09803921569 1.09803921569 1.06666666667 1.06666666667 1.07450980392 1.08235294118 1.09019607843 1.09803921569 1.09803921569 1.09803921569 1.09803921569 1.09019607843 1.10588235294 1.10588235294 1.12941176471 1.10588235294 1.15294117647 1.45098039216 1.78039215686 1.81176470588 1.83529411765 1.78039215686 1.8431372549 1.79607843137 1.78039215686 1.80392156863 1.50588235294 0.737254901961 0.501960784314 0.541176470588 0.486274509804 0.478431372549 0.454901960784 0.462745098039 0.478431372549 0.462745098039 0.486274509804 0.533333333333 0.525490196078 0.650980392157 1.53725490196 1.90588235294 1.82745098039 1.88235294118 1.89019607843 1.89019607843 1.80392156863 1.37254901961 1.85882352941 1.85882352941 1.85098039216 1.85882352941 1.85882352941 1.86666666667 1.87450980392 1.88235294118 1.88235294118 1.87450980392 1.87450980392 1.87450980392 1.87450980392 1.87450980392 1.87450980392 1.87450980392 1.87450980392 1.87450980392 1.87450980392 1.87450980392 1.87450980392 1.87450980392 1.87450980392 1.87450980392 1.87450980392 1.87450980392 1.87450980392 1.87450980392 1.87450980392 1.87450980392 1.87450980392 1.86666666667 1.86666666667 1.85882352941 1.85098039216 1.86666666667 1.86666666667 1.86666666667 1.85882352941 1.85882352941 1.85882352941 1.85882352941 1.85098039216 1.81960784314 1.85098039216 1.37254901961 1.71764705882 1.8431372549 1.85882352941 1.85098039216 1.86666666667 1.86666666667 1.86666666667 1.86666666667 1.87450980392 1.87450980392 1.86666666667 1.86666666667 1.86666666667 1.87450980392 1.86666666667 1.86666666667 1.87450980392 1.88235294118 1.87450980392 1.87450980392 1.88235294118 1.88235294118 1.87450980392 1.87450980392 1.87450980392 1.87450980392 1.87450980392 1.87450980392 1.87450980392 1.87450980392 1.86666666667 1.86666666667 1.86666666667 1.86666666667 1.86666666667 1.87450980392 1.87450980392 1.87450980392 1.87450980392 1.87450980392 1.87450980392 1.85882352941 1.85882352941 1.85882352941 1.85882352941 1.85882352941 1.85882352941 1.85882352941 1.86666666667 1.86666666667 1.85882352941 1.85882352941 1.85882352941 1.85098039216 1.85882352941 1.85098039216 1.8431372549 1.85098039216 1.85098039216 1.8431372549 1.8431372549
1.13725490196 1.08235294118 1.09019607843 1.15294117647 1.16078431373 1.06666666667 0.988235294118 0.972549019608 1.06666666667 1.19215686275 1.30196078431 1.61568627451 1.70980392157 1.46666666667 1.23921568627 1.21568627451 1.46666666667 1.74901960784 1.69411764706 1.64705882353 1.67058823529 1.67058823529 1.66274509804 1.66274509804 1.65490196078 1.6862745098 1.61568627451 1.61568627451 1.72549019608 1.55294117647 1.01960784314 1.02745098039 1.1137254902 1.12156862745 1.09803921569 1.09803921569 1.09803921569 1.09803921569 1.10588235294 1.08235294118 1.08235294118 1.05098039216 1.08235294118 0.980392156863 0.713725490196 0.486274509804 0.549019607843 0.541176470588 0.501960784314 0.509803921569 0.737254901961 1.03529411765 1.1137254902 1.05882352941 1.09019607843 1.09019607843 1.08235294118 1.09019607843 1.09019607843 1.09019607843 1.09803921569 1.09803921569 1.09019607843 1.09803921569 1.1137254902 1.12156862745 1.12941176471 1.09803921569 1.16078431373 1.47450980392 1.78823529412 1.8431372549 1.83529411765 1.82745098039 1.82745098039 1.81960784314 1.8431372549 1.81960784314 1.79607843137 1.83529411765 1.33333333333 0.533333333333 0.525490196078 0.509803921569 0.486274509804 0.470588235294 0.478431372549 0.478431372549 0.478431372549 0.517647058824 0.541176470588 0.43137254902 1.02745098039 1.78823529412 1.88235294118 1.85098039216 1.89019607843 1.88235294118 1.90588235294 1.69411764706 1.42745098039 1.88235294118 1.85098039216 1.85098039216 1.85098039216 1.85882352941 1.86666666667 1.86666666667 1.87450980392 1.87450980392 1.87450980392 1.87450980392 1.88235294118 1.88235294118 1.88235294118 1.88235294118 1.88235294118 1.88235294118 1.87450980392 1.87450980392 1.87450980392 1.87450980392 1.87450980392 1.87450980392 1.87450980392 1.87450980392 1.87450980392 1.87450980392 1.86666666667 1.87450980392 1.87450980392 1.86666666667 1.86666666667 1.85882352941 1.85882352941 1.85098039216 1.85882352941 1.85882352941 1.85882352941 1.85882352941 1.85882352941 1.86666666667 1.85882352941 1.85098039216 1.85882352941 1.86666666667 1.56862745098 1.43529411765 1.85098039216 1.85882352941 1.83529411765 1.86666666667 1.86666666667 1.86666666667 1.86666666667 1.87450980392 1.87450980392 1.86666666667 1.86666666667 1.87450980392 1.87450980392 1.86666666667 1.86666666667 1.87450980392 1.88235294118 1.88235294118 1.87450980392 1.87450980392 1.88235294118 1.87450980392 1.87450980392 1.87450980392 1.87450980392 1.87450980392 1.87450980392 1.87450980392 1.87450980392 1.87450980392 1.86666666667 1.86666666667 1.86666666667 1.86666666667 1.87450980392 1.87450980392 1.87450980392 1.87450980392 1.87450980392 1.87450980392 1.86666666667 1.86666666667 1.86666666667 1.85882352941 1.85882352941 1.85882352941 1.86666666667 1.85882352941 1.85882352941 1.85882352941 1.85098039216 1.85098039216 1.85098039216 1.86666666667 1.85882352941 1.85098039216 1.85098039216 1.85098039216 1.85098039216 1.85098039216
1.09803921569 1.1137254902 1.10588235294 1.07450980392 1.08235294118 1.10588235294 1.12941176471 1.13725490196 1.02745098039 0.949019607843 1.03529411765 1.03529411765 1.12156862745 1.3568627451 1.45882352941 1.34901960784 1.25490196078 1.26274509804 1.56862745098 1.70196078431 1.69411764706 1.67058823529 1.64705882353 1.61568627451 1.60784313725 1.63921568627 1.60784313725 1.60784313725 1.65490196078 1.29411764706 0.925490196078 1.10588235294 1.06666666667 1.10588235294 1.09803921569 1.10588235294 1.10588235294 1.08235294118 1.06666666667 1.05098039216 1.06666666667 1.01960784314 0.964705882353 0.643137254902 0.517647058824 0.533333333333 0.517647058824 0.517647058824 0.517647058824 0.81568627451 1.07450980392 1.09019607843 1.05882352941 1.09803921569 1.08235294118 1.10588235294 1.09803921569 1.09803921569 1.09019607843 1.09019607843 1.09803921569 1.09803921569 1.10588235294 1.1137254902 1.07450980392 1.15294117647 1.07450980392 1.19215686275 1.59215686275 1.83529411765 1.8431372549 1.83529411765 1.80392156863 1.8431372549 1.83529411765 1.82745098039 1.83529411765 1.83529411765 1.83529411765 1.78823529412 1.78823529412 1.18431372549 0.517647058824 0.470588235294 0.556862745098 0.470588235294 0.494117647059 0.439215686275 0.494117647059 0.572549019608 0.556862745098 0.603921568627 1.47450980392 1.93725490196 1.8431372549 1.88235294118 1.85098039216 1.92156862745 1.85882352941 1.6 1.54509803922 1.88235294118 1.85882352941 1.82745098039 1.85098039216 1.85882352941 1.85882352941 1.85882352941 1.86666666667 1.87450980392 1.87450980392 1.87450980392 1.88235294118 1.88235294118 1.88235294118 1.88235294118 1.87450980392 1.87450980392 1.87450980392 1.87450980392 1.85882352941 1.85882352941 1.85882352941 1.85882352941 1.85882352941 1.85882352941 1.85882352941 1.85882352941 1.85882352941 1.86666666667 1.86666666667 1.85882352941 1.85882352941 1.85882352941 1.85882352941 1.85882352941 1.85882352941 1.86666666667 1.85882352941 1.85882352941 1.86666666667 1.86666666667 1.86666666667 1.85882352941 1.82745098039 1.87450980392 1.81176470588 1.3568627451 1.82745098039 1.8431372549 1.85098039216 1.85098039216 1.86666666667 1.86666666667 1.86666666667 1.86666666667 1.87450980392 1.87450980392 1.87450980392 1.87450980392 1.87450980392 1.86666666667 1.86666666667 1.87450980392 1.88235294118 1.88235294118 1.87450980392 1.87450980392 1.87450980392 1.87450980392 1.87450980392 1.88235294118 1.88235294118 1.88235294118 1.87450980392 1.87450980392 1.87450980392 1.87450980392 1.87450980392 1.87450980392 1.87450980392 1.87450980392 1.87450980392 1.87450980392 1.87450980392 1.88235294118 1.88235294118 1.87450980392 1.87450980392 1.87450980392 1.86666666667 1.85882352941 1.86666666667 1.86666666667 1.86666666667 1.85882352941 1.85882352941 1.85882352941 1.85098039216 1.85098039216 1.85882352941 1.86666666667 1.86666666667 1.85882352941 1.85098039216 1.85098039216 1.85882352941 1.85882352941
1.09803921569 1.09803921569 1.10588235294 1.1137254902 1.10588235294 1.08235294118 1.07450980392 1.07450980392 1.12941176471 1.10588235294 1.13725490196 1.02745098039 1.01176470588 0.964705882353 1.01176470588 1.08235294118 1.05098039216 0.964705882353 0.980392156863 1.16078431373 1.55294117647 1.70196078431 1.73333333333 1.70196078431 1.69411764706 1.65490196078 1.61568627451 1.64705882353 1.56078431373 1.1137254902 1.01176470588 1.1137254902 1.07450980392 1.09019607843 1.08235294118 1.09803921569 1.1137254902 1.07450980392 1.05882352941 1.06666666667 1.0431372549 0.909803921569 0.564705882353 0.517647058824 0.541176470588 0.533333333333 0.549019607843 0.549019607843 0.862745098039 1.09803921569 1.05098039216 1.07450980392 1.09803921569 1.09803921569 1.12941176471 1.08235294118 1.09803921569 1.09803921569 1.09803921569 1.09019607843 1.10588235294 1.1137254902 1.12156862745 1.12941176471 1.10588235294 1.10588235294 1.30196078431 1.66274509804 1.83529411765 1.8431372549 1.85098039216 1.82745098039 1.81960784314 1.8431372549 1.83529411765 1.8431372549 1.8431372549 1.82745098039 1.83529411765 1.81176470588 1.81176470588 1.77254901961 0.972549019608 0.454901960784 0.486274509804 0.517647058824 0.533333333333 0.494117647059 0.509803921569 0.549019607843 0.462745098039 1.03529411765 1.79607843137 1.87450980392 1.86666666667 1.88235294118 1.87450980392 1.88235294118 1.85882352941 1.43529411765 1.67058823529 1.89803921569 1.8431372549 1.85098039216 1.85098039216 1.85882352941 1.86666666667 1.85098039216 1.86666666667 1.87450980392 1.87450980392 1.87450980392 1.87450980392 1.87450980392 1.87450980392 1.87450980392 1.87450980392 1.87450980392 1.86666666667 1.86666666667 1.85882352941 1.85882352941 1.85882352941 1.85882352941 1.85882352941 1.85882352941 1.85882352941 1.85882352941 1.85882352941 1.86666666667 1.85882352941 1.85882352941 1.85882352941 1.85882352941 1.85882352941 1.85882352941 1.86666666667 1.86666666667 1.86666666667 1.85882352941 1.86666666667 1.86666666667 1.86666666667 1.85882352941 1.85882352941 1.86666666667 1.87450980392 1.54509803922 1.5137254902 1.86666666667 1.85098039216 1.87450980392 1.85882352941 1.86666666667 1.86666666667 1.86666666667 1.87450980392 1.87450980392 1.87450980392 1.87450980392 1.87450980392 1.86666666667 1.86666666667 1.87450980392 1.88235294118 1.88235294118 1.87450980392 1.87450980392 1.87450980392 1.87450980392 1.87450980392 1.88235294118 1.88235294118 1.88235294118 1.87450980392 1.87450980392 1.87450980392 1.87450980392 1.88235294118 1.88235294118 1.88235294118 1.87450980392 1.87450980392 1.87450980392 1.88235294118 1.88235294118 1.88235294118 1.88235294118 1.88235294118 1.87450980392 1.86666666667 1.87450980392 1.87450980392 1.87450980392 1.87450980392 1.86666666667 1.86666666667 1.85882352941 1.85882352941 1.85098039216 1.85882352941 1.85882352941 1.86666666667 1.85882352941 1.85098039216 1.85882352941 1.86666666667 1.86666666667
1.09803921569 1.1137254902 1.10588235294 1.08235294118 1.09803921569 1.12156862745 1.1137254902 1.09019607843 1.10588235294 1.09803921569 1.09803921569 1.12156862745 1.15294117647 1.09803921569 1.0431372549 1.00392156863 1.01176470588 1.00392156863 0.878431372549 0.721568627451 0.823529411765 1.00392156863 1.14509803922 1.34901960784 1.49019607843 1.55294117647 1.61568627451 1.53725490196 1.23137254902 0.925490196078 1.09019607843 1.13725490196 1.08235294118 1.08235294118 1.07450980392 1.09019607843 1.1137254902 1.1137254902 1.10588235294 1.07450980392 0.925490196078 0.588235294118 0.462745098039 0.494117647059 0.509803921569 0.533333333333 0.556862745098 0.886274509804 1.01960784314 1.08235294118 1.05882352941 1.1137254902 1.09019607843 1.08235294118 1.08235294118 1.1137254902 1.09803921569 1.09803921569 1.09803921569 1.09803921569 1.10588235294 1.1137254902 1.12156862745 1.12941176471 1.10588235294 1.30980392157 1.73333333333 1.87450980392 1.83529411765 1.85882352941 1.81960784314 1.85882352941 1.8431372549 1.86666666667 1.85882352941 1.81960784314 1.85882352941 1.87450980392 1.82745098039 1.80392156863 1.80392156863 1.79607843137 1.64705882353 0.917647058824 0.447058823529 0.549019607843 0.501960784314 0.501960784314 0.564705882353 0.541176470588 0.690196078431 1.50588235294 1.90588235294 1.83529411765 1.89803921569 1.85098039216 1.89803921569 1.82745098039 1.7568627451 1.34901960784 1.83529411765 1.8431372549 1.85098039216 1.87450980392 1.85098039216 1.86666666667 1.86666666667 1.85882352941 1.86666666667 1.87450980392 1.87450980392 1.87450980392 1.86666666667 1.86666666667 1.87450980392 1.87450980392 1.87450980392 1.87450980392 1.87450980392 1.86666666667 1.85882352941 1.85882352941 1.86666666667 1.86666666667 1.86666666667 1.86666666667 1.85882352941 1.85882352941 1.85882352941 1.86666666667 1.86666666667 1.85882352941 1.85882352941 1.85882352941 1.86666666667 1.85882352941 1.86666666667 1.86666666667 1.85882352941 1.85882352941 1.85882352941 1.86666666667 1.86666666667 1.85882352941 1.88235294118 1.82745098039 1.8431372549 1.76470588235 1.36470588235 1.85882352941 1.83529411765 1.81960784314 1.85098039216 1.85882352941 1.86666666667 1.86666666667 1.87450980392 1.87450980392 1.87450980392 1.86666666667 1.87450980392 1.86666666667 1.86666666667 1.87450980392 1.88235294118 1.88235294118 1.87450980392 1.86666666667 1.87450980392 1.87450980392 1.87450980392 1.87450980392 1.87450980392 1.87450980392 1.87450980392 1.87450980392 1.86666666667 1.86666666667 1.87450980392 1.87450980392 1.87450980392 1.87450980392 1.87450980392 1.87450980392 1.87450980392 1.87450980392 1.87450980392 1.87450980392 1.87450980392 1.87450980392 1.86666666667 1.86666666667 1.86666666667 1.87450980392 1.87450980392 1.86666666667 1.86666666667 1.86666666667 1.86666666667 1.85882352941 1.85882352941 1.85098039216 1.85882352941 1.85882352941 1.85098039216 1.85882352941 1.87450980392 1.86666666667
1.09803921569 1.10588235294 1.10588235294 1.10588235294 1.1137254902 1.09803921569 1.10588235294 1.1137254902 1.10588235294 1.10588235294 1.09803921569 1.09803921569 1.05882352941 1.13725490196 1.09803921569 1.09803921569 1.1137254902 1.1137254902 1.03529411765 1.09803921569 1.03529411765 0.988235294118 0.972549019608 0.941176470588 0.917647058824 0.941176470588 0.925490196078 0.76862745098 0.737254901961 0.972549019608 1.17647058824 1.06666666667 1.07450980392 1.09019607843 1.09019607843 1.08235294118 1.08235294118 1.09019607843 1.0431372549 0.909803921569 0.572549019608 0.494117647059 0.509803921569 0.525490196078 0.517647058824 0.486274509804 0.752941176471 1.06666666667 1.06666666667 1.06666666667 1.06666666667 1.08235294118 1.05882352941 1.12156862745 1.07450980392 1.09019607843 1.10588235294 1.10588235294 1.10588235294 1.09803921569 1.10588235294 1.1137254902 1.1137254902 1.12156862745 1.33333333333 1.79607843137 1.88235294118 1.78823529412 1.8431372549 1.85098039216 1.85098039216 1.86666666667 1.86666666667 1.85882352941 1.83529411765 1.86666666667 1.8431372549 1.83529411765 1.88235294118 1.85882352941 1.81176470588 1.81176470588 1.8431372549 1.61568627451 0.78431372549 0.517647058824 0.525490196078 0.549019607843 0.549019607843 0.603921568627 1.34117647059 1.86666666667 1.82745098039 1.88235294118 1.85882352941 1.89019607843 1.83529411765 1.92156862745 1.49803921569 1.53725490196 1.89019607843 1.8431372549 1.83529411765 1.85882352941 1.8431372549 1.86666666667 1.86666666667 1.85882352941 1.86666666667 1.87450980392 1.87450980392 1.86666666667 1.88235294118 1.88235294118 1.88235294118 1.88235294118 1.88235294118 1.88235294118 1.87450980392 1.87450980392 1.85098039216 1.85882352941 1.85882352941 1.85882352941 1.85882352941 1.85882352941 1.85882352941 1.85098039216 1.86666666667 1.86666666667 1.86666666667 1.85882352941 1.85882352941 1.85882352941 1.85882352941 1.85882352941 1.86666666667 1.86666666667 1.85882352941 1.85882352941 1.85882352941 1.86666666667 1.85882352941 1.85098039216 1.85098039216 1.88235294118 1.87450980392 1.78039215686 1.45098039216 1.66274509804 1.85882352941 1.8431372549 1.85098039216 1.85882352941 1.86666666667 1.86666666667 1.87450980392 1.88235294118 1.87450980392 1.86666666667 1.87450980392 1.86666666667 1.85882352941 1.87450980392 1.88235294118 1.88235294118 1.87450980392 1.86666666667 1.88235294118 1.87450980392 1.87450980392 1.87450980392 1.87450980392 1.87450980392 1.87450980392 1.87450980392 1.87450980392 1.87450980392 1.87450980392 1.87450980392 1.87450980392 1.86666666667 1.86666666667 1.86666666667 1.85882352941 1.86666666667 1.86666666667 1.86666666667 1.86666666667 1.86666666667 1.85882352941 1.85882352941 1.85882352941 1.86666666667 1.86666666667 1.85882352941 1.85882352941 1.86666666667 1.86666666667 1.86666666667 1.85882352941 1.85098039216 1.85882352941 1.85882352941 1.85098039216 1.85882352941 1.87450980392 1.86666666667
1.09803921569 1.12156862745 1.12156862745 1.09803921569 1.12156862745 1.09019607843 1.12156862745 1.08235294118 1.10588235294 1.10588235294 1.1137254902 1.10588235294 1.09019607843 1.09803921569 1.10588235294 1.10588235294 1.09019607843 1.09803921569 1.10588235294 1.10588235294 1.10588235294 1.10588235294 1.09803921569 1.08235294118 1.08235294118 1.06666666667 1.03529411765 1.01176470588 0.933333333333 1.07450980392 1.09019607843 1.1137254902 1.09019607843 1.09019607843 1.09019607843 1.09019607843 1.06666666667 1.09019607843 0.941176470588 0.572549019608 0.525490196078 0.517647058824 0.501960784314 0.541176470588 0.486274509804 0.572549019608 0.988235294118 1.05098039216 1.09019607843 1.02745098039 1.09803921569 1.09019607843 1.08235294118 1.1137254902 1.07450980392 1.1137254902 1.09019607843 1.09019607843 1.09803921569 1.07450980392 1.13725490196 1.1137254902 1.12941176471 1.37254901961 1.7568627451 1.81176470588 1.82745098039 1.82745098039 1.8431372549 1.85098039216 1.8431372549 1.85098039216 1.87450980392 1.86666666667 1.85882352941 1.85098039216 1.85098039216 1.8431372549 1.85882352941 1.87450980392 1.81960784314 1.81176470588 1.79607843137 1.83529411765 1.55294117647 0.713725490196 0.549019607843 0.541176470588 0.611764705882 1.32549019608 1.87450980392 1.82745098039 1.9137254902 1.86666666667 1.90588235294 1.85882352941 1.87450980392 1.77254901961 1.30980392157 1.81176470588 1.83529411765 1.8431372549 1.8431372549 1.8431372549 1.83529411765 1.85882352941 1.86666666667 1.86666666667 1.85882352941 1.85098039216 1.85098039216 1.86666666667 1.86666666667 1.86666666667 1.87450980392 1.87450980392 1.87450980392 1.86666666667 1.86666666667 1.85882352941 1.87450980392 1.88235294118 1.85882352941 1.8431372549 1.85882352941 1.85882352941 1.85098039216 1.85882352941 1.8431372549 1.86666666667 1.8431372549 1.85098039216 1.85098039216 1.8431372549 1.87450980392 1.85098039216 1.86666666667 1.86666666667 1.85882352941 1.85882352941 1.85882352941 1.85882352941 1.86666666667 1.86666666667 1.83529411765 1.85882352941 1.86666666667 1.8431372549 1.57647058824 1.47450980392 1.89803921569 1.86666666667 1.85882352941 1.83529411765 1.85882352941 1.88235294118 1.88235294118 1.87450980392 1.88235294118 1.87450980392 1.87450980392 1.85882352941 1.85882352941 1.87450980392 1.88235294118 1.88235294118 1.88235294118 1.87450980392 1.88235294118 1.88235294118 1.87450980392 1.87450980392 1.88235294118 1.87450980392 1.87450980392 1.86666666667 1.86666666667 1.86666666667 1.87450980392 1.86666666667 1.86666666667 1.86666666667 1.86666666667 1.85882352941 1.85882352941 1.85882352941 1.85882352941 1.85098039216 1.85882352941 1.85882352941 1.85882352941 1.86666666667 1.86666666667 1.86666666667 1.85882352941 1.85882352941 1.85882352941 1.85882352941 1.86666666667 1.87450980392 1.85882352941 1.85882352941 1.85882352941 1.85882352941 1.85098039216 1.85882352941 1.85882352941 1.85882352941
1.12156862745 1.08235294118 1.07450980392 1.1137254902 1.08235294118 1.08235294118 1.09803921569 1.13725490196 1.1137254902 1.10588235294 1.10588235294 1.10588235294 1.10588235294 1.10588235294 1.10588235294 1.1137254902 1.09019607843 1.09803921569 1.09803921569 1.09803921569 1.09803921569 1.10588235294 1.09019607843 1.09019607843 1.07450980392 1.06666666667 1.08235294118 1.09019607843 1.03529411765 1.1137254902 1.09803921569 1.09019607843 1.08235294118 1.07450980392 1.10588235294 1.09019607843 1.10588235294 0.964705882353 0.643137254902 0.509803921569 0.501960784314 0.517647058824 0.517647058824 0.517647058824 0.501960784314 0.564705882353 0.901960784314 1.12156862745 1.05098039216 1.07450980392 1.07450980392 1.10588235294 1.10588235294 1.09019607843 1.10588235294 1.09019607843 1.08235294118 1.12941176471 1.1137254902 1.14509803922 1.09803921569 1.12156862745 1.39607843137 1.76470588235 1.83529411765 1.8431372549 1.8431372549 1.83529411765 1.8431372549 1.85882352941 1.87450980392 1.86666666667 1.86666666667 1.86666666667 1.85882352941 1.85882352941 1.85098039216 1.85098039216 1.85882352941 1.86666666667 1.83529411765 1.85098039216 1.83529411765 1.81176470588 1.81960784314 1.56078431373 0.760784313725 0.713725490196 1.38823529412 1.82745098039 1.86666666667 1.86666666667 1.87450980392 1.88235294118 1.88235294118 1.92941176471 1.89803921569 1.4431372549 1.53725490196 1.87450980392 1.85882352941 1.85098039216 1.85882352941 1.86666666667 1.86666666667 1.86666666667 1.86666666667 1.86666666667 1.85882352941 1.85098039216 1.85098039216 1.85098039216 1.87450980392 1.87450980392 1.87450980392 1.87450980392 1.87450980392 1.87450980392 1.87450980392 1.86666666667 1.85882352941 1.8431372549 1.87450980392 1.88235294118 1.8431372549 1.85882352941 1.88235294118 1.85882352941 1.86666666667 1.81960784314 1.85882352941 1.86666666667 1.85882352941 1.87450980392 1.85882352941 1.85882352941 1.86666666667 1.86666666667 1.86666666667 1.86666666667 1.85882352941 1.85882352941 1.86666666667 1.86666666667 1.86666666667 1.87450980392 1.82745098039 1.87450980392 1.67843137255 1.41176470588 1.81960784314 1.85882352941 1.85098039216 1.83529411765 1.85098039216 1.86666666667 1.86666666667 1.86666666667 1.87450980392 1.87450980392 1.87450980392 1.85882352941 1.85882352941 1.87450980392 1.88235294118 1.88235294118 1.88235294118 1.87450980392 1.87450980392 1.87450980392 1.86666666667 1.86666666667 1.87450980392 1.87450980392 1.86666666667 1.86666666667 1.86666666667 1.86666666667 1.86666666667 1.86666666667 1.85882352941 1.86666666667 1.86666666667 1.85882352941 1.85882352941 1.85882352941 1.85882352941 1.85882352941 1.86666666667 1.86666666667 1.85882352941 1.85882352941 1.85882352941 1.85882352941 1.85882352941 1.85882352941 1.85882352941 1.86666666667 1.87450980392 1.87450980392 1.85882352941 1.85882352941 1.85882352941 1.85882352941 1.85098039216 1.85882352941 1.85882352941 1.85882352941
1.07450980392 1.14509803922 1.10588235294 1.09019607843 1.12156862745 1.1137254902 1.10588235294 1.09019607843 1.1137254902 1.10588235294 1.09803921569 1.09803921569 1.10588235294 1.1137254902 1.10588235294 1.09803921569 1.09803921569 1.09803921569 1.09803921569 1.09019607843 1.09019607843 1.09803921569 1.09019607843 1.09019607843 1.08235294118 1.06666666667 1.09019607843 1.09803921569 1.09019607843 1.1137254902 1.09803921569 1.09019607843 1.08235294118 1.08235294118 1.07450980392 1.09803921569 0.996078431373 0.698039215686 0.494117647059 0.486274509804 0.525490196078 0.525490196078 0.509803921569 0.501960784314 0.564705882353 0.486274509804 0.541176470588 0.792156862745 1.05098039216 1.09019607843 1.09019607843 1.09019607843 1.09803921569 1.09803921569 1.10588235294 1.09803921569 1.09803921569 1.09019607843 1.12941176471 1.1137254902 1.12156862745 1.34901960784 1.78823529412 1.85098039216 1.8431372549 1.8431372549 1.86666666667 1.88235294118 1.85098039216 1.85098039216 1.86666666667 1.86666666667 1.86666666667 1.86666666667 1.86666666667 1.86666666667 1.86666666667 1.85882352941 1.85882352941 1.85882352941 1.85882352941 1.85098039216 1.83529411765 1.8431372549 1.78823529412 1.87450980392 1.57647058824 1.31764705882 1.85882352941 1.85098039216 1.79607843137 1.87450980392 1.89019607843 1.90588235294 1.8431372549 1.92156862745 1.59215686275 1.41960784314 1.81960784314 1.85882352941 1.85098039216 1.82745098039 1.83529411765 1.85882352941 1.85882352941 1.85882352941 1.85882352941 1.85882352941 1.86666666667 1.86666666667 1.85882352941 1.85882352941 1.88235294118 1.87450980392 1.87450980392 1.87450980392 1.87450980392 1.87450980392 1.87450980392 1.87450980392 1.85098039216 1.89019607843 1.86666666667 1.85098039216 1.87450980392 1.85098039216 1.82745098039 1.85882352941 1.85882352941 1.8431372549 1.87450980392 1.85098039216 1.8431372549 1.85882352941 1.85098039216 1.88235294118 1.85882352941 1.86666666667 1.86666666667 1.86666666667 1.86666666667 1.85882352941 1.85882352941 1.85882352941 1.87450980392 1.86666666667 1.83529411765 1.87450980392 1.79607843137 1.42745098039 1.67843137255 1.88235294118 1.85098039216 1.85882352941 1.85882352941 1.86666666667 1.87450980392 1.87450980392 1.87450980392 1.88235294118 1.86666666667 1.85882352941 1.85882352941 1.87450980392 1.88235294118 1.88235294118 1.87450980392 1.87450980392 1.86666666667 1.86666666667 1.86666666667 1.86666666667 1.86666666667 1.87450980392 1.86666666667 1.86666666667 1.86666666667 1.86666666667 1.86666666667 1.86666666667 1.85882352941 1.86666666667 1.86666666667 1.85882352941 1.85882352941 1.85882352941 1.86666666667 1.86666666667 1.87450980392 1.87450980392 1.86666666667 1.85882352941 1.85098039216 1.85098039216 1.85098039216 1.85098039216 1.86666666667 1.86666666667 1.87450980392 1.87450980392 1.86666666667 1.86666666667 1.86666666667 1.86666666667 1.85882352941 1.85882352941 1.86666666667 1.86666666667
1.10588235294 1.07450980392 1.1137254902 1.1137254902 1.09803921569 1.13725490196 1.08235294118 1.09803921569 1.10588235294 1.09803921569 1.09803921569 1.09803921569 1.1137254902 1.1137254902 1.1137254902 1.09803921569 1.09019607843 1.09803921569 1.09803921569 1.09019607843 1.09019607843 1.09803921569 1.09019607843 1.09019607843 1.08235294118 1.06666666667 1.08235294118 1.06666666667 1.09803921569 1.09019607843 1.09019607843 1.09019607843 1.06666666667 1.06666666667 1.06666666667 1.00392156863 0.721568627451 0.501960784314 0.525490196078 0.517647058824 0.533333333333 0.478431372549 0.517647058824 0.486274509804 0.501960784314 0.517647058824 0.509803921569 0.509803921569 0.658823529412 0.949019607843 1.01176470588 1.09803921569 1.12941176471 1.05882352941 1.09803921569 1.08235294118 1.09019607843 1.1137254902 1.1137254902 1.10588235294 1.38823529412 1.83529411765 1.81960784314 1.86666666667 1.86666666667 1.83529411765 1.82745098039 1.85098039216 1.85882352941 1.87450980392 1.87450980392 1.86666666667 1.86666666667 1.86666666667 1.86666666667 1.86666666667 1.86666666667 1.85882352941 1.85882352941 1.85882352941 1.89019607843 1.8431372549 1.85098039216 1.85882352941 1.8431372549 1.81176470588 1.80392156863 1.48235294118 1.40392156863 1.8431372549 1.89019607843 1.85882352941 1.8431372549 1.85882352941 1.95294117647 1.71764705882 1.32549019608 1.7568627451 1.85882352941 1.82745098039 1.85098039216 1.80392156863 1.89019607843 1.85882352941 1.85882352941 1.85882352941 1.85882352941 1.85882352941 1.86666666667 1.86666666667 1.86666666667 1.85882352941 1.88235294118 1.87450980392 1.87450980392 1.87450980392 1.86666666667 1.87450980392 1.87450980392 1.87450980392 1.89019607843 1.85882352941 1.86666666667 1.89019607843 1.87450980392 1.85098039216 1.85882352941 1.86666666667 1.82745098039 1.87450980392 1.82745098039 1.82745098039 1.87450980392 1.87450980392 1.86666666667 1.8431372549 1.85882352941 1.86666666667 1.86666666667 1.86666666667 1.86666666667 1.86666666667 1.86666666667 1.86666666667 1.85882352941 1.85098039216 1.86666666667 1.8431372549 1.85098039216 1.56078431373 1.52156862745 1.92156862745 1.8431372549 1.85882352941 1.86666666667 1.86666666667 1.88235294118 1.88235294118 1.88235294118 1.88235294118 1.86666666667 1.85882352941 1.85882352941 1.87450980392 1.88235294118 1.88235294118 1.87450980392 1.87450980392 1.87450980392 1.87450980392 1.87450980392 1.87450980392 1.87450980392 1.87450980392 1.87450980392 1.87450980392 1.87450980392 1.86666666667 1.87450980392 1.86666666667 1.85882352941 1.86666666667 1.86666666667 1.85882352941 1.85882352941 1.86666666667 1.86666666667 1.87450980392 1.88235294118 1.87450980392 1.86666666667 1.86666666667 1.85882352941 1.85882352941 1.85882352941 1.86666666667 1.87450980392 1.87450980392 1.87450980392 1.88235294118 1.87450980392 1.87450980392 1.87450980392 1.87450980392 1.86666666667 1.86666666667 1.87450980392 1.87450980392
1.07450980392 1.1137254902 1.08235294118 1.1137254902 1.08235294118 1.10588235294 1.07450980392 1.12156862745 1.09803921569 1.10588235294 1.09803921569 1.09803921569 1.10588235294 1.10588235294 1.09803921569 1.09803921569 1.09019607843 1.09803921569 1.09803921569 1.09803921569 1.09803921569 1.09803921569 1.09019607843 1.08235294118 1.07450980392 1.07450980392 1.08235294118 1.07450980392 1.10588235294 1.08235294118 1.09019607843 1.07450980392 1.05882352941 1.06666666667 1.03529411765 0.760784313725 0.517647058824 0.501960784314 0.509803921569 0.525490196078 0.525490196078 0.509803921569 0.525490196078 0.525490196078 0.549019607843 0.509803921569 0.509803921569 0.509803921569 0.501960784314 0.494117647059 0.776470588235 1.01960784314 1.08235294118 1.09803921569 1.07450980392 1.1137254902 1.10588235294 1.12156862745 1.13725490196 1.31764705882 1.77254901961 1.85098039216 1.76470588235 1.8431372549 1.82745098039 1.85098039216 1.87450980392 1.89803921569 1.90588235294 1.88235294118 1.86666666667 1.89019607843 1.87450980392 1.87450980392 1.87450980392 1.86666666667 1.85882352941 1.85882352941 1.85882352941 1.85882352941 1.85098039216 1.89803921569 1.89019607843 1.85098039216 1.86666666667 1.81176470588 1.82745098039 1.8431372549 1.6 1.4431372549 1.74901960784 1.89019607843 1.86666666667 1.92941176471 1.74901960784 1.3568627451 1.65490196078 1.89803921569 1.89019607843 1.8431372549 1.82745098039 1.88235294118 1.81176470588 1.85882352941 1.85882352941 1.86666666667 1.87450980392 1.86666666667 1.85882352941 1.85098039216 1.85098039216 1.85098039216 1.88235294118 1.86666666667 1.86666666667 1.86666666667 1.85882352941 1.85882352941 1.86666666667 1.86666666667 1.86666666667 1.8431372549 1.85882352941 1.86666666667 1.86666666667 1.86666666667 1.86666666667 1.8431372549 1.85882352941 1.88235294118 1.85882352941 1.86666666667 1.85882352941 1.83529411765 1.86666666667 1.86666666667 1.85882352941 1.85882352941 1.85882352941 1.85882352941 1.85882352941 1.86666666667 1.87450980392 1.87450980392 1.85098039216 1.85882352941 1.86666666667 1.8431372549 1.86666666667 1.67843137255 1.41176470588 1.88235294118 1.83529411765 1.8431372549 1.85098039216 1.85882352941 1.87450980392 1.87450980392 1.86666666667 1.86666666667 1.86666666667 1.85882352941 1.86666666667 1.87450980392 1.88235294118 1.88235294118 1.87450980392 1.87450980392 1.88235294118 1.88235294118 1.88235294118 1.87450980392 1.87450980392 1.87450980392 1.87450980392 1.87450980392 1.87450980392 1.87450980392 1.87450980392 1.86666666667 1.86666666667 1.86666666667 1.87450980392 1.86666666667 1.85882352941 1.86666666667 1.85882352941 1.86666666667 1.87450980392 1.86666666667 1.86666666667 1.86666666667 1.85882352941 1.86666666667 1.86666666667 1.86666666667 1.87450980392 1.87450980392 1.87450980392 1.87450980392 1.87450980392 1.87450980392 1.87450980392 1.87450980392 1.86666666667 1.86666666667 1.87450980392 1.87450980392
1.0431372549 1.02745098039 1.12941176471 1.06666666667 1.12156862745 1.08235294118 1.1137254902 1.09803921569 1.09803921569 1.10588235294 1.10588235294 1.10588235294 1.09803921569 1.09803921569 1.09803921569 1.09803921569 1.09019607843 1.09803921569 1.09803921569 1.09803921569 1.09803921569 1.09803921569 1.09019607843 1.08235294118 1.09019607843 1.05882352941 1.0431372549 1.08235294118 1.08235294118 1.07450980392 1.07450980392 1.06666666667 1.06666666667 1.10588235294 0.854901960784 0.525490196078 0.501960784314 0.541176470588 0.494117647059 0.517647058824 0.494117647059 0.494117647059 0.517647058824 0.509803921569 0.501960784314 0.501960784314 0.572549019608 0.501960784314 0.549019607843 0.556862745098 0.525490196078 0.627450980392 0.956862745098 1.13725490196 1.09019607843 1.09019607843 1.13725490196 1.13725490196 1.30196078431 1.78039215686 1.87450980392 1.80392156863 1.8431372549 1.8431372549 1.87450980392 1.86666666667 1.8431372549 1.8431372549 1.88235294118 1.88235294118 1.87450980392 1.89019607843 1.87450980392 1.88235294118 1.87450980392 1.86666666667 1.85882352941 1.85882352941 1.85882352941 1.86666666667 1.88235294118 1.87450980392 1.85882352941 1.86666666667 1.86666666667 1.86666666667 1.86666666667 1.81960784314 1.83529411765 1.60784313725 1.38823529412 1.74117647059 1.92941176471 1.78823529412 1.34117647059 1.59215686275 1.87450980392 1.86666666667 1.81960784314 1.88235294118 1.85882352941 1.86666666667 1.86666666667 1.85882352941 1.8431372549 1.85882352941 1.86666666667 1.86666666667 1.85882352941 1.85882352941 1.86666666667 1.86666666667 1.87450980392 1.86666666667 1.86666666667 1.86666666667 1.85882352941 1.85882352941 1.86666666667 1.85882352941 1.86666666667 1.88235294118 1.8431372549 1.81960784314 1.85098039216 1.83529411765 1.83529411765 1.89803921569 1.78823529412 1.71764705882 1.80392156863 1.85882352941 1.8431372549 1.85882352941 1.86666666667 1.86666666667 1.86666666667 1.85882352941 1.85882352941 1.85882352941 1.85882352941 1.86666666667 1.87450980392 1.88235294118 1.86666666667 1.88235294118 1.83529411765 1.85882352941 1.86666666667 1.73333333333 1.40392156863 1.74901960784 1.85882352941 1.83529411765 1.8431372549 1.86666666667 1.87450980392 1.87450980392 1.87450980392 1.86666666667 1.86666666667 1.85882352941 1.86666666667 1.87450980392 1.88235294118 1.87450980392 1.87450980392 1.87450980392 1.88235294118 1.88235294118 1.87450980392 1.87450980392 1.86666666667 1.86666666667 1.86666666667 1.87450980392 1.87450980392 1.87450980392 1.87450980392 1.87450980392 1.86666666667 1.87450980392 1.87450980392 1.86666666667 1.86666666667 1.86666666667 1.85882352941 1.85882352941 1.86666666667 1.86666666667 1.86666666667 1.86666666667 1.86666666667 1.86666666667 1.86666666667 1.86666666667 1.87450980392 1.86666666667 1.86666666667 1.86666666667 1.86666666667 1.86666666667 1.86666666667 1.86666666667 1.85882352941 1.85882352941 1.86666666667 1.86666666667
1.41176470588 1.00392156863 1.10588235294 1.07450980392 1.09803921569 1.09803921569 1.09803921569 1.10588235294 1.09803921569 1.09803921569 1.09803921569 1.09803921569 1.09803921569 1.09803921569 1.09803921569 1.09803921569 1.09803921569 1.10588235294 1.10588235294 1.09803921569 1.09803921569 1.09803921569 1.09019607843 1.08235294118 1.09803921569 1.01960784314 0.964705882353 1.07450980392 1.05882352941 1.06666666667 1.06666666667 1.07450980392 1.05882352941 0.949019607843 0.611764705882 0.478431372549 0.533333333333 0.509803921569 0.517647058824 0.517647058824 0.486274509804 0.509803921569 0.509803921569 0.509803921569 0.564705882353 0.517647058824 0.517647058824 0.525490196078 0.494117647059 0.494117647059 0.486274509804 0.494117647059 0.81568627451 1.09803921569 1.05098039216 1.1137254902 1.12156862745 1.23921568627 1.65490196078 1.81960784314 1.86666666667 1.88235294118 1.8431372549 1.86666666667 1.85098039216 1.85882352941 1.86666666667 1.86666666667 1.86666666667 1.86666666667 1.86666666667 1.87450980392 1.87450980392 1.87450980392 1.87450980392 1.85882352941 1.85882352941 1.85882352941 1.87450980392 1.87450980392 1.88235294118 1.8431372549 1.89803921569 1.8431372549 1.8431372549 1.87450980392 1.8431372549 1.82745098039 1.82745098039 1.90588235294 1.6862745098 1.43529411765 1.53725490196 1.41176470588 1.6 1.82745098039 1.86666666667 1.82745098039 1.85882352941 1.86666666667 1.85882352941 1.85098039216 1.85098039216 1.83529411765 1.85098039216 1.8431372549 1.85098039216 1.85882352941 1.85882352941 1.86666666667 1.87450980392 1.88235294118 1.86666666667 1.86666666667 1.85882352941 1.85882352941 1.85882352941 1.85882352941 1.85882352941 1.85882352941 1.8431372549 1.83529411765 1.85098039216 1.8431372549 1.83529411765 1.86666666667 1.79607843137 1.62352941176 1.56862745098 1.62352941176 1.78823529412 1.85882352941 1.85098039216 1.86666666667 1.85882352941 1.85882352941 1.86666666667 1.86666666667 1.86666666667 1.85882352941 1.85882352941 1.86666666667 1.87450980392 1.87450980392 1.86666666667 1.87450980392 1.83529411765 1.85882352941 1.85098039216 1.79607843137 1.49803921569 1.57647058824 1.90588235294 1.8431372549 1.85098039216 1.88235294118 1.86666666667 1.86666666667 1.89019607843 1.86666666667 1.86666666667 1.85882352941 1.86666666667 1.87450980392 1.87450980392 1.87450980392 1.87450980392 1.87450980392 1.87450980392 1.87450980392 1.87450980392 1.86666666667 1.86666666667 1.86666666667 1.86666666667 1.87450980392 1.87450980392 1.87450980392 1.87450980392 1.86666666667 1.85882352941 1.86666666667 1.86666666667 1.85882352941 1.86666666667 1.86666666667 1.86666666667 1.85882352941 1.86666666667 1.86666666667 1.86666666667 1.86666666667 1.86666666667 1.86666666667 1.86666666667 1.85882352941 1.85882352941 1.85882352941 1.86666666667 1.86666666667 1.86666666667 1.86666666667 1.85098039216 1.85098039216 1.85882352941 1.85882352941 1.85882352941 1.85882352941
1.9137254902 1.62352941176 1.00392156863 1.08235294118 1.12156862745 1.09019607843 1.09803921569 1.1137254902 1.10588235294 1.10588235294 1.09803921569 1.09803921569 1.09803921569 1.09803921569 1.09803921569 1.09803921569 1.10588235294 1.1137254902 1.10588235294 1.09803921569 1.09019607843 1.09803921569 1.09019607843 1.09019607843 1.09019607843 0.972549019608 0.909803921569 1.09803921569 1.07450980392 1.08235294118 1.06666666667 1.09019607843 1.02745098039 0.635294117647 0.501960784314 0.533333333333 0.509803921569 0.501960784314 0.509803921569 0.517647058824 0.517647058824 0.533333333333 0.549019607843 0.462745098039 0.462745098039 0.517647058824 0.603921568627 0.635294117647 0.674509803922 0.674509803922 0.721568627451 0.792156862745 0.964705882353 1.1137254902 1.1137254902 1.1137254902 1.18431372549 1.61568627451 1.85882352941 1.83529411765 1.82745098039 1.87450980392 1.86666666667 1.85882352941 1.86666666667 1.85882352941 1.87450980392 1.87450980392 1.86666666667 1.87450980392 1.89019607843 1.86666666667 1.86666666667 1.87450980392 1.87450980392 1.85882352941 1.85882352941 1.85882352941 1.87450980392 1.86666666667 1.86666666667 1.88235294118 1.85098039216 1.89019607843 1.85882352941 1.85882352941 1.85882352941 1.85882352941 1.83529411765 1.82745098039 1.90588235294 1.74117647059 1.56862745098 1.67058823529 1.86666666667 1.86666666667 1.8431372549 1.8431372549 1.87450980392 1.85882352941 1.85098039216 1.85098039216 1.86666666667 1.85882352941 1.89803921569 1.87450980392 1.86666666667 1.85882352941 1.85882352941 1.85882352941 1.85882352941 1.85882352941 1.86666666667 1.86666666667 1.85882352941 1.85882352941 1.85882352941 1.85882352941 1.85882352941 1.85882352941 1.88235294118 1.79607843137 1.81960784314 1.9137254902 1.79607843137 1.49803921569 1.39607843137 1.52156862745 1.65490196078 1.82745098039 1.86666666667 1.85882352941 1.87450980392 1.86666666667 1.87450980392 1.85098039216 1.86666666667 1.86666666667 1.86666666667 1.86666666667 1.86666666667 1.86666666667 1.86666666667 1.86666666667 1.85098039216 1.8431372549 1.87450980392 1.83529411765 1.82745098039 1.87450980392 1.58431372549 1.46666666667 1.92156862745 1.83529411765 1.8431372549 1.88235294118 1.85098039216 1.85882352941 1.89019607843 1.85882352941 1.85882352941 1.85882352941 1.86666666667 1.87450980392 1.87450980392 1.87450980392 1.87450980392 1.87450980392 1.86666666667 1.87450980392 1.87450980392 1.86666666667 1.86666666667 1.86666666667 1.86666666667 1.87450980392 1.87450980392 1.86666666667 1.86666666667 1.86666666667 1.85098039216 1.85882352941 1.86666666667 1.85882352941 1.86666666667 1.86666666667 1.86666666667 1.85882352941 1.86666666667 1.86666666667 1.85882352941 1.86666666667 1.86666666667 1.86666666667 1.86666666667 1.86666666667 1.85882352941 1.86666666667 1.87450980392 1.87450980392 1.86666666667 1.86666666667 1.85882352941 1.85098039216 1.85882352941 1.85882352941 1.85882352941 1.86666666667
1.97647058824 1.98431372549 1.58431372549 1.01960784314 1.06666666667 1.12941176471 1.07450980392 1.06666666667 1.10588235294 1.1137254902 1.12941176471 1.09803921569 1.09803921569 1.12156862745 1.09019607843 1.09019607843 1.09803921569 1.10588235294 1.10588235294 1.09803921569 1.09803921569 1.09019607843 1.09019607843 1.10588235294 1.05882352941 0.901960784314 1.01176470588 1.09019607843 1.09803921569 1.05882352941 1.07450980392 1.03529411765 0.745098039216 0.517647058824 0.509803921569 0.541176470588 0.494117647059 0.517647058824 0.525490196078 0.517647058824 0.525490196078 0.486274509804 0.556862745098 0.674509803922 0.760784313725 0.886274509804 0.988235294118 0.996078431373 1.03529411765 1.03529411765 1.07450980392 1.06666666667 1.1137254902 1.09803921569 1.09803921569 1.16078431373 1.53725490196 1.85098039216 1.83529411765 1.83529411765 1.88235294118 1.81960784314 1.86666666667 1.86666666667 1.85882352941 1.85882352941 1.86666666667 1.86666666667 1.85882352941 1.86666666667 1.87450980392 1.86666666667 1.87450980392 1.87450980392 1.86666666667 1.86666666667 1.87450980392 1.87450980392 1.86666666667 1.86666666667 1.87450980392 1.87450980392 1.87450980392 1.87450980392 1.87450980392 1.86666666667 1.85098039216 1.85098039216 1.8431372549 1.81960784314 1.83529411765 1.89019607843 1.93725490196 1.9137254902 1.88235294118 1.87450980392 1.85882352941 1.86666666667 1.86666666667 1.85882352941 1.8431372549 1.85098039216 1.85882352941 1.85098039216 1.57647058824 1.65490196078 1.87450980392 1.85098039216 1.85098039216 1.87450980392 1.8431372549 1.86666666667 1.85882352941 1.87450980392 1.85098039216 1.8431372549 1.85882352941 1.8431372549 1.83529411765 1.83529411765 1.81176470588 1.8431372549 1.87450980392 1.58431372549 1.38039215686 1.42745098039 1.64705882353 1.85098039216 1.87450980392 1.85098039216 1.85098039216 1.85882352941 1.86666666667 1.86666666667 1.86666666667 1.86666666667 1.85882352941 1.85882352941 1.85882352941 1.86666666667 1.86666666667 1.86666666667 1.87450980392 1.88235294118 1.86666666667 1.86666666667 1.86666666667 1.85882352941 1.82745098039 1.87450980392 1.70980392157 1.42745098039 1.78823529412 1.88235294118 1.85882352941 1.85882352941 1.8431372549 1.88235294118 1.85882352941 1.87450980392 1.87450980392 1.85882352941 1.86666666667 1.88235294118 1.88235294118 1.86666666667 1.86666666667 1.86666666667 1.85882352941 1.85882352941 1.85882352941 1.86666666667 1.86666666667 1.86666666667 1.86666666667 1.86666666667 1.8431372549 1.85882352941 1.86666666667 1.85098039216 1.85098039216 1.86666666667 1.85882352941 1.86666666667 1.87450980392 1.87450980392 1.85882352941 1.88235294118 1.85098039216 1.85098039216 1.85098039216 1.88235294118 1.85882352941 1.88235294118 1.86666666667 1.85882352941 1.85882352941 1.85098039216 1.86666666667 1.86666666667 1.85882352941 1.85882352941 1.85882352941 1.85882352941 1.86666666667 1.86666666667 1.86666666667 1.86666666667
1.97647058824 1.94509803922 1.97647058824 1.58431372549 0.909803921569 1.06666666667 1.1137254902 1.1137254902 1.1137254902 1.09019607843 1.1137254902 1.1137254902 1.12156862745 1.07450980392 1.12156862745 1.08235294118 1.09803921569 1.10588235294 1.09803921569 1.09803921569 1.09803921569 1.09803921569 1.09019607843 1.09803921569 1.0431372549 0.862745098039 1.07450980392 1.08235294118 1.0431372549 1.0431372549 1.12156862745 0.847058823529 0.509803921569 0.525490196078 0.541176470588 0.501960784314 0.525490196078 0.517647058824 0.533333333333 0.486274509804 0.517647058824 0.737254901961 0.925490196078 1.01960784314 1.07450980392 1.09803921569 1.09019607843 1.10588235294 1.06666666667 1.09803921569 1.06666666667 1.06666666667 1.08235294118 1.10588235294 1.12156862745 1.42745098039 1.8431372549 1.81960784314 1.79607843137 1.83529411765 1.8431372549 1.87450980392 1.93725490196 1.85882352941 1.86666666667 1.86666666667 1.86666666667 1.86666666667 1.85882352941 1.86666666667 1.87450980392 1.86666666667 1.86666666667 1.86666666667 1.86666666667 1.86666666667 1.86666666667 1.86666666667 1.87450980392 1.87450980392 1.86666666667 1.86666666667 1.86666666667 1.87450980392 1.86666666667 1.86666666667 1.85882352941 1.85882352941 1.83529411765 1.82745098039 1.8431372549 1.85882352941 1.87450980392 1.85098039216 1.85098039216 1.85882352941 1.86666666667 1.86666666667 1.87450980392 1.85882352941 1.8431372549 1.8431372549 1.8431372549 1.83529411765 0.996078431373 1.15294117647 1.80392156863 1.81176470588 1.85098039216 1.85098039216 1.89803921569 1.8431372549 1.86666666667 1.83529411765 1.88235294118 1.85882352941 1.82745098039 1.87450980392 1.86666666667 1.82745098039 1.88235294118 1.7568627451 1.40392156863 1.34901960784 1.65490196078 1.82745098039 1.8431372549 1.85882352941 1.8431372549 1.82745098039 1.83529411765 1.85098039216 1.88235294118 1.89019607843 1.87450980392 1.83529411765 1.85882352941 1.85882352941 1.85882352941 1.85882352941 1.86666666667 1.86666666667 1.87450980392 1.87450980392 1.86666666667 1.85098039216 1.85882352941 1.8431372549 1.82745098039 1.86666666667 1.76470588235 1.46666666667 1.66274509804 1.89803921569 1.8431372549 1.87450980392 1.85098039216 1.85882352941 1.86666666667 1.87450980392 1.87450980392 1.85882352941 1.86666666667 1.87450980392 1.87450980392 1.87450980392 1.87450980392 1.87450980392 1.85882352941 1.85882352941 1.85882352941 1.85882352941 1.86666666667 1.86666666667 1.86666666667 1.87450980392 1.85882352941 1.85098039216 1.8431372549 1.87450980392 1.85882352941 1.8431372549 1.88235294118 1.85882352941 1.85882352941 1.86666666667 1.87450980392 1.87450980392 1.85098039216 1.87450980392 1.88235294118 1.82745098039 1.85098039216 1.85098039216 1.8431372549 1.8431372549 1.85098039216 1.8431372549 1.85098039216 1.85882352941 1.85882352941 1.85098039216 1.8431372549 1.85882352941 1.85098039216 1.8431372549 1.8431372549 1.85098039216
1.97647058824 1.95294117647 1.97647058824 1.96862745098 1.53725490196 0.956862745098 1.03529411765 1.09803921569 1.12156862745 1.08235294118 1.13725490196 1.09019607843 1.09803921569 1.09019607843 1.09803921569 1.09803921569 1.09019607843 1.09803921569 1.09803921569 1.09803921569 1.10588235294 1.10588235294 1.09019607843 1.09019607843 0.980392156863 0.870588235294 1.09019607843 1.09019607843 1.03529411765 1.07450980392 0.941176470588 0.627450980392 0.525490196078 0.533333333333 0.486274509804 0.517647058824 0.541176470588 0.549019607843 0.533333333333 0.729411764706 0.925490196078 1.06666666667 1.09803921569 1.0431372549 1.0431372549 1.05882352941 1.05882352941 1.09019607843 1.09803921569 1.05098039216 1.09019607843 1.10588235294 1.1137254902 1.12941176471 1.3568627451 1.79607843137 1.87450980392 1.81960784314 1.86666666667 1.88235294118 1.85882352941 1.86666666667 1.86666666667 1.87450980392 1.86666666667 1.86666666667 1.86666666667 1.86666666667 1.85882352941 1.85882352941 1.86666666667 1.85882352941 1.85882352941 1.86666666667 1.86666666667 1.86666666667 1.85882352941 1.85882352941 1.86666666667 1.87450980392 1.86666666667 1.86666666667 1.85882352941 1.86666666667 1.86666666667 1.86666666667 1.86666666667 1.86666666667 1.87450980392 1.87450980392 1.87450980392 1.87450980392 1.86666666667 1.85098039216 1.85882352941 1.88235294118 1.85882352941 1.86666666667 1.86666666667 1.85882352941 1.85098039216 1.8431372549 1.82745098039 1.82745098039 0.941176470588 0.933333333333 1.73333333333 1.85098039216 1.79607843137 1.82745098039 1.83529411765 1.87450980392 1.87450980392 1.88235294118 1.85882352941 1.85882352941 1.87450980392 1.81176470588 1.79607843137 1.89019607843 1.64705882353 1.05882352941 1.29411764706 1.77254901961 1.86666666667 1.81960784314 1.82745098039 1.81176470588 1.81960784314 1.85098039216 1.87450980392 1.86666666667 1.85882352941 1.86666666667 1.87450980392 1.86666666667 1.86666666667 1.85882352941 1.85882352941 1.85882352941 1.86666666667 1.87450980392 1.87450980392 1.87450980392 1.87450980392 1.8431372549 1.86666666667 1.85098039216 1.83529411765 1.85098039216 1.85098039216 1.53725490196 1.52941176471 1.90588235294 1.81960784314 1.87450980392 1.86666666667 1.83529411765 1.88235294118 1.86666666667 1.87450980392 1.85882352941 1.86666666667 1.87450980392 1.87450980392 1.87450980392 1.87450980392 1.87450980392 1.86666666667 1.85882352941 1.85882352941 1.85882352941 1.85882352941 1.86666666667 1.86666666667 1.87450980392 1.85098039216 1.85098039216 1.88235294118 1.85098039216 1.8431372549 1.87450980392 1.83529411765 1.83529411765 1.87450980392 1.86666666667 1.85098039216 1.82745098039 1.85098039216 1.83529411765 1.85098039216 1.85098039216 1.86666666667 1.85098039216 1.83529411765 1.8431372549 1.85098039216 1.8431372549 1.8431372549 1.85882352941 1.83529411765 1.83529411765 1.83529411765 1.83529411765 1.8431372549 1.8431372549 1.85098039216 1.8431372549
1.99215686275 1.98431372549 1.96078431373 1.98431372549 1.97647058824 1.67058823529 1.08235294118 0.996078431373 1.12156862745 1.08235294118 1.10588235294 1.10588235294 1.09803921569 1.12156862745 1.08235294118 1.07450980392 1.09019607843 1.09803921569 1.09803921569 1.09803921569 1.09803921569 1.10588235294 1.09803921569 1.09803921569 0.933333333333 0.933333333333 1.07450980392 1.05882352941 1.08235294118 0.996078431373 0.619607843137 0.533333333333 0.556862745098 0.525490196078 0.517647058824 0.541176470588 0.533333333333 0.564705882353 0.917647058824 1.0431372549 1.09019607843 1.08235294118 1.08235294118 1.07450980392 1.06666666667 1.08235294118 1.09019607843 1.08235294118 1.07450980392 1.1137254902 1.07450980392 1.1137254902 1.13725490196 1.20784313725 1.67058823529 1.86666666667 1.81960784314 1.83529411765 1.86666666667 1.8431372549 1.86666666667 1.88235294118 1.83529411765 1.86666666667 1.86666666667 1.86666666667 1.86666666667 1.86666666667 1.85882352941 1.85882352941 1.85882352941 1.85882352941 1.85882352941 1.85882352941 1.86666666667 1.86666666667 1.85882352941 1.85882352941 1.85882352941 1.86666666667 1.86666666667 1.86666666667 1.85882352941 1.85882352941 1.86666666667 1.86666666667 1.86666666667 1.86666666667 1.85882352941 1.85882352941 1.85882352941 1.86666666667 1.86666666667 1.86666666667 1.86666666667 1.85882352941 1.8431372549 1.85882352941 1.86666666667 1.85882352941 1.85882352941 1.8431372549 1.82745098039 1.82745098039 1.06666666667 0.627450980392 1.56078431373 1.87450980392 1.79607843137 1.83529411765 1.8431372549 1.85098039216 1.86666666667 1.86666666667 1.85882352941 1.87450980392 1.80392156863 1.85098039216 1.82745098039 1.40392156863 0.698039215686 0.698039215686 1.55294117647 1.89803921569 1.77254901961 1.81176470588 1.86666666667 1.83529411765 1.85098039216 1.85098039216 1.8431372549 1.85098039216 1.87450980392 1.88235294118 1.87450980392 1.85882352941 1.87450980392 1.86666666667 1.86666666667 1.86666666667 1.87450980392 1.87450980392 1.87450980392 1.87450980392 1.87450980392 1.8431372549 1.87450980392 1.85882352941 1.85098039216 1.83529411765 1.89803921569 1.6 1.46666666667 1.89019607843 1.81960784314 1.85098039216 1.85882352941 1.8431372549 1.87450980392 1.87450980392 1.87450980392 1.86666666667 1.86666666667 1.87450980392 1.87450980392 1.87450980392 1.87450980392 1.88235294118 1.86666666667 1.85882352941 1.85882352941 1.85882352941 1.86666666667 1.86666666667 1.86666666667 1.87450980392 1.82745098039 1.89803921569 1.83529411765 1.82745098039 1.85098039216 1.8431372549 1.87450980392 1.85098039216 1.85098039216 1.83529411765 1.85098039216 1.8431372549 1.86666666667 1.83529411765 1.85098039216 1.8431372549 1.82745098039 1.82745098039 1.85098039216 1.85882352941 1.85882352941 1.85882352941 1.8431372549 1.83529411765 1.82745098039 1.8431372549 1.8431372549 1.82745098039 1.82745098039 1.85098039216 1.85098039216 1.82745098039
1.95294117647 1.98431372549 1.96862745098 1.96078431373 1.98431372549 1.90588235294 1.78823529412 1.23137254902 1.01176470588 1.13725490196 1.1137254902 1.07450980392 1.12941176471 1.07450980392 1.06666666667 1.09019607843 1.09019607843 1.09803921569 1.10588235294 1.10588235294 1.09803921569 1.10588235294 1.10588235294 1.09803921569 0.909803921569 0.972549019608 1.09803921569 1.02745098039 1.01960784314 0.737254901961 0.486274509804 0.556862745098 0.501960784314 0.533333333333 0.494117647059 0.509803921569 0.643137254902 0.980392156863 1.08235294118 1.05098039216 1.07450980392 1.03529411765 1.06666666667 1.10588235294 1.07450980392 1.07450980392 1.09803921569 1.09019607843 1.08235294118 1.05098039216 1.12156862745 1.12941176471 1.12156862745 1.58431372549 1.89803921569 1.78823529412 1.83529411765 1.83529411765 1.85098039216 1.85098039216 1.85882352941 1.89019607843 1.89019607843 1.85098039216 1.86666666667 1.85882352941 1.86666666667 1.86666666667 1.85882352941 1.85882352941 1.86666666667 1.85882352941 1.86666666667 1.85882352941 1.85882352941 1.85882352941 1.86666666667 1.86666666667 1.85882352941 1.85098039216 1.86666666667 1.86666666667 1.85882352941 1.85882352941 1.85882352941 1.86666666667 1.86666666667 1.86666666667 1.85098039216 1.8431372549 1.8431372549 1.85098039216 1.85882352941 1.86666666667 1.85882352941 1.85098039216 1.85098039216 1.86666666667 1.87450980392 1.87450980392 1.86666666667 1.8431372549 1.81960784314 1.83529411765 1.12156862745 0.494117647059 0.78431372549 1.56862745098 1.83529411765 1.78823529412 1.86666666667 1.88235294118 1.85882352941 1.89019607843 1.8431372549 1.87450980392 1.85882352941 1.85882352941 1.8431372549 1.56078431373 1.02745098039 0.721568627451 1.05882352941 1.74117647059 1.89019607843 1.85882352941 1.83529411765 1.8431372549 1.8431372549 1.82745098039 1.81960784314 1.85098039216 1.89019607843 1.89019607843 1.86666666667 1.85882352941 1.87450980392 1.86666666667 1.86666666667 1.87450980392 1.87450980392 1.87450980392 1.87450980392 1.87450980392 1.87450980392 1.8431372549 1.87450980392 1.85882352941 1.85098039216 1.81960784314 1.89803921569 1.65490196078 1.41960784314 1.80392156863 1.85882352941 1.8431372549 1.85098039216 1.85882352941 1.85098039216 1.86666666667 1.88235294118 1.87450980392 1.87450980392 1.87450980392 1.86666666667 1.86666666667 1.87450980392 1.87450980392 1.86666666667 1.85882352941 1.85882352941 1.86666666667 1.86666666667 1.86666666667 1.86666666667 1.87450980392 1.89019607843 1.85882352941 1.86666666667 1.86666666667 1.90588235294 1.89019607843 1.81176470588 1.85882352941 1.85098039216 1.81960784314 1.86666666667 1.85098039216 1.82745098039 1.85098039216 1.85098039216 1.82745098039 1.83529411765 1.82745098039 1.83529411765 1.80392156863 1.79607843137 1.83529411765 1.8431372549 1.85098039216 1.85098039216 1.8431372549 1.8431372549 1.8431372549 1.85098039216 1.85098039216 1.85098039216 1.85098039216
1.96862745098 1.99215686275 2.0 2.0 1.96078431373 1.99215686275 1.96078431373 1.9137254902 1.1137254902 1.00392156863 1.14509803922 1.09803921569 1.1137254902 1.09019607843 1.12941176471 1.10588235294 1.09803921569 1.09803921569 1.10588235294 1.10588235294 1.09019607843 1.10588235294 1.09803921569 1.08235294118 0.854901960784 1.00392156863 1.09803921569 1.0431372549 0.792156862745 0.533333333333 0.533333333333 0.564705882353 0.556862745098 0.525490196078 0.541176470588 0.78431372549 1.06666666667 1.05098039216 1.08235294118 1.08235294118 1.08235294118 1.09019607843 1.09803921569 1.09803921569 1.09803921569 1.09019607843 1.09803921569 1.10588235294 1.1137254902 1.10588235294 1.13725490196 1.12941176471 1.47450980392 1.86666666667 1.81960784314 1.81960784314 1.82745098039 1.85098039216 1.88235294118 1.90588235294 1.86666666667 1.8431372549 1.88235294118 1.86666666667 1.85882352941 1.85882352941 1.85882352941 1.86666666667 1.85882352941 1.85882352941 1.86666666667 1.86666666667 1.86666666667 1.85882352941 1.85882352941 1.85882352941 1.86666666667 1.86666666667 1.85882352941 1.85098039216 1.86666666667 1.86666666667 1.85882352941 1.85882352941 1.85882352941 1.85882352941 1.85882352941 1.85882352941 1.86666666667 1.86666666667 1.86666666667 1.85882352941 1.85882352941 1.85882352941 1.86666666667 1.87450980392 1.86666666667 1.87450980392 1.87450980392 1.87450980392 1.86666666667 1.83529411765 1.81960784314 1.8431372549 1.12156862745 0.549019607843 0.533333333333 1.01176470588 1.78823529412 1.8431372549 1.82745098039 1.87450980392 1.87450980392 1.86666666667 1.86666666667 1.86666666667 1.85098039216 1.8431372549 1.82745098039 1.81176470588 1.85882352941 1.6862745098 1.22352941176 1.05098039216 1.60784313725 1.78823529412 1.88235294118 1.89019607843 1.85098039216 1.86666666667 1.85882352941 1.85098039216 1.86666666667 1.85098039216 1.85098039216 1.87450980392 1.86666666667 1.86666666667 1.87450980392 1.87450980392 1.86666666667 1.86666666667 1.86666666667 1.86666666667 1.85882352941 1.85098039216 1.86666666667 1.85882352941 1.85098039216 1.81176470588 1.86666666667 1.73333333333 1.40392156863 1.69411764706 1.90588235294 1.8431372549 1.85098039216 1.85098039216 1.8431372549 1.87450980392 1.87450980392 1.87450980392 1.87450980392 1.87450980392 1.86666666667 1.86666666667 1.87450980392 1.87450980392 1.86666666667 1.85882352941 1.85882352941 1.86666666667 1.86666666667 1.86666666667 1.86666666667 1.87450980392 1.85098039216 1.85098039216 1.85098039216 1.87450980392 1.8431372549 1.85098039216 1.83529411765 1.65490196078 1.59215686275 1.5137254902 1.43529411765 1.38039215686 1.39607843137 1.32549019608 1.14509803922 1.30196078431 1.30980392157 1.27058823529 1.27843137255 1.23137254902 1.23137254902 1.30196078431 1.33333333333 1.3568627451 1.34117647059 1.31764705882 1.3568627451 1.4431372549 1.49019607843 1.50588235294 1.54509803922 1.6
1.97647058824 1.98431372549 1.97647058824 2.0 1.97647058824 1.99215686275 1.98431372549 1.96862745098 1.89803921569 1.18431372549 0.964705882353 1.12156862745 1.10588235294 1.09019607843 1.08235294118 1.09019607843 1.10588235294 1.09019607843 1.09803921569 1.10588235294 1.09019607843 1.10588235294 1.09019607843 1.05098039216 0.83137254902 1.03529411765 1.0431372549 0.909803921569 0.572549019608 0.509803921569 0.549019607843 0.533333333333 0.533333333333 0.556862745098 0.81568627451 1.05098039216 1.03529411765 1.08235294118 1.08235294118 1.08235294118 1.08235294118 1.09803921569 1.08235294118 1.07450980392 1.09803921569 1.10588235294 1.09019607843 1.09019607843 1.08235294118 1.09803921569 1.09019607843 1.38823529412 1.80392156863 1.81960784314 1.85882352941 1.85098039216 1.85882352941 1.87450980392 1.85882352941 1.85882352941 1.87450980392 1.8431372549 1.85098039216 1.88235294118 1.85882352941 1.85098039216 1.85882352941 1.86666666667 1.85882352941 1.85882352941 1.86666666667 1.86666666667 1.86666666667 1.85882352941 1.85882352941 1.85882352941 1.86666666667 1.86666666667 1.85882352941 1.85882352941 1.85882352941 1.85882352941 1.85882352941 1.86666666667 1.86666666667 1.85882352941 1.85882352941 1.85098039216 1.86666666667 1.86666666667 1.86666666667 1.86666666667 1.85882352941 1.85098039216 1.85882352941 1.87450980392 1.87450980392 1.88235294118 1.86666666667 1.85882352941 1.85882352941 1.83529411765 1.82745098039 1.86666666667 1.2862745098 0.596078431373 0.509803921569 1.12156862745 1.74117647059 1.89019607843 1.85882352941 1.85882352941 1.88235294118 1.86666666667 1.89019607843 1.86666666667 1.8431372549 1.85098039216 1.8431372549 1.86666666667 1.85882352941 1.81960784314 1.85098039216 1.71764705882 1.33333333333 1.39607843137 1.66274509804 1.81176470588 1.81960784314 1.85882352941 1.85882352941 1.8431372549 1.86666666667 1.87450980392 1.85882352941 1.85098039216 1.85882352941 1.86666666667 1.87450980392 1.87450980392 1.86666666667 1.85882352941 1.86666666667 1.86666666667 1.85098039216 1.86666666667 1.85882352941 1.85882352941 1.85098039216 1.82745098039 1.8431372549 1.82745098039 1.45098039216 1.6 1.92156862745 1.8431372549 1.85882352941 1.8431372549 1.85882352941 1.85098039216 1.86666666667 1.86666666667 1.87450980392 1.88235294118 1.87450980392 1.87450980392 1.87450980392 1.87450980392 1.86666666667 1.86666666667 1.85882352941 1.86666666667 1.86666666667 1.86666666667 1.86666666667 1.87450980392 1.85098039216 1.89019607843 1.85098039216 1.8431372549 1.88235294118 1.67843137255 1.43529411765 1.48235294118 1.52941176471 1.62352941176 1.67058823529 1.72549019608 1.78823529412 1.65490196078 1.31764705882 1.64705882353 1.92156862745 1.85882352941 1.88235294118 1.87450980392 1.85882352941 1.86666666667 1.83529411765 1.8431372549 1.81960784314 1.76470588235 1.72549019608 1.69411764706 1.63921568627 1.56862745098 1.52941176471 1.52941176471
1.98431372549 1.98431372549 1.99215686275 1.96078431373 2.0 1.98431372549 1.99215686275 1.97647058824 1.97647058824 1.94509803922 1.16862745098 1.02745098039 1.06666666667 1.16078431373 1.08235294118 1.1137254902 1.10588235294 1.09019607843 1.09803921569 1.09803921569 1.09803921569 1.09803921569 1.07450980392 1.01960784314 0.870588235294 1.0431372549 0.996078431373 0.643137254902 0.501960784314 0.533333333333 0.509803921569 0.525490196078 0.556862745098 0.81568627451 1.08235294118 1.09019607843 1.05882352941 1.08235294118 1.09019607843 1.07450980392 1.09803921569 1.09803921569 1.09803921569 1.09803921569 1.09019607843 1.09019607843 1.10588235294 1.1137254902 1.12156862745 1.07450980392 1.26274509804 1.70196078431 1.8431372549 1.81960784314 1.8431372549 1.85098039216 1.85882352941 1.85098039216 1.86666666667 1.86666666667 1.85882352941 1.86666666667 1.85882352941 1.85882352941 1.86666666667 1.85882352941 1.85882352941 1.86666666667 1.85882352941 1.85882352941 1.85882352941 1.86666666667 1.85882352941 1.85882352941 1.85882352941 1.86666666667 1.86666666667 1.86666666667 1.86666666667 1.86666666667 1.85882352941 1.85882352941 1.85882352941 1.86666666667 1.86666666667 1.86666666667 1.85882352941 1.85098039216 1.87450980392 1.86666666667 1.86666666667 1.88235294118 1.88235294118 1.86666666667 1.85882352941 1.86666666667 1.87450980392 1.87450980392 1.85882352941 1.8431372549 1.85098039216 1.83529411765 1.83529411765 1.89019607843 1.46666666667 0.650980392157 0.690196078431 1.56078431373 1.87450980392 1.82745098039 1.80392156863 1.86666666667 1.85882352941 1.88235294118 1.87450980392 1.86666666667 1.86666666667 1.86666666667 1.85882352941 1.83529411765 1.86666666667 1.8431372549 1.85882352941 1.85882352941 1.92941176471 1.72549019608 1.53725490196 1.47450980392 1.64705882353 1.78823529412 1.87450980392 1.86666666667 1.86666666667 1.87450980392 1.86666666667 1.85882352941 1.86666666667 1.87450980392 1.88235294118 1.88235294118 1.86666666667 1.85882352941 1.86666666667 1.87450980392 1.85098039216 1.87450980392 1.85098039216 1.85882352941 1.85882352941 1.85098039216 1.83529411765 1.89803921569 1.5137254902 1.56862745098 1.9137254902 1.82745098039 1.86666666667 1.83529411765 1.89019607843 1.83529411765 1.85882352941 1.85882352941 1.87450980392 1.88235294118 1.87450980392 1.87450980392 1.88235294118 1.88235294118 1.87450980392 1.86666666667 1.85882352941 1.85882352941 1.85882352941 1.85882352941 1.86666666667 1.87450980392 1.88235294118 1.86666666667 1.86666666667 1.87450980392 1.85098039216 1.85098039216 1.89019607843 1.89803921569 1.88235294118 1.88235294118 1.8431372549 1.82745098039 1.8431372549 1.85882352941 1.42745098039 1.56078431373 1.87450980392 1.77254901961 1.79607843137 1.81960784314 1.83529411765 1.85882352941 1.8431372549 1.87450980392 1.79607843137 1.81960784314 1.82745098039 1.82745098039 1.8431372549 1.88235294118 1.89019607843 1.88235294118
1.99215686275 1.99215686275 1.98431372549 1.98431372549 1.99215686275 1.99215686275 1.99215686275 1.98431372549 1.96862745098 1.98431372549 1.94509803922 1.41176470588 1.01960784314 1.0431372549 1.13725490196 1.10588235294 1.07450980392 1.1137254902 1.07450980392 1.10588235294 1.05098039216 1.07450980392 1.09019607843 0.980392156863 0.83137254902 1.01960784314 0.713725490196 0.525490196078 0.549019607843 0.517647058824 0.525490196078 0.541176470588 0.886274509804 1.05882352941 1.09803921569 1.0431372549 1.06666666667 1.1137254902 1.10588235294 1.09803921569 1.10588235294 1.09803921569 1.09803921569 1.09019607843 1.09803921569 1.07450980392 1.13725490196 1.09803921569 1.09019607843 1.16862745098 1.63137254902 1.87450980392 1.8431372549 1.8431372549 1.85882352941 1.85882352941 1.86666666667 1.86666666667 1.86666666667 1.85882352941 1.85882352941 1.85882352941 1.85882352941 1.85882352941 1.86666666667 1.86666666667 1.86666666667 1.86666666667 1.86666666667 1.86666666667 1.86666666667 1.86666666667 1.86666666667 1.86666666667 1.86666666667 1.86666666667 1.86666666667 1.86666666667 1.85882352941 1.85882352941 1.85882352941 1.85882352941 1.85882352941 1.85882352941 1.85882352941 1.86666666667 1.86666666667 1.86666666667 1.85882352941 1.85882352941 1.86666666667 1.87450980392 1.88235294118 1.88235294118 1.88235294118 1.87450980392 1.88235294118 1.87450980392 1.85882352941 1.85098039216 1.85098039216 1.83529411765 1.81960784314 1.82745098039 1.74901960784 0.847058823529 0.823529411765 1.80392156863 1.85882352941 1.80392156863 1.83529411765 1.85098039216 1.85098039216 1.86666666667 1.86666666667 1.85098039216 1.85098039216 1.85882352941 1.86666666667 1.85882352941 1.85882352941 1.87450980392 1.8431372549 1.8431372549 1.82745098039 1.86666666667 1.92156862745 1.81176470588 1.47450980392 1.49019607843 1.65490196078 1.8431372549 1.85098039216 1.85098039216 1.89019607843 1.8431372549 1.86666666667 1.86666666667 1.86666666667 1.87450980392 1.86666666667 1.85882352941 1.85098039216 1.85882352941 1.86666666667 1.8431372549 1.87450980392 1.86666666667 1.86666666667 1.8431372549 1.81176470588 1.92941176471 1.54509803922 1.47450980392 1.87450980392 1.8431372549 1.85098039216 1.85882352941 1.85882352941 1.85882352941 1.85882352941 1.85882352941 1.85882352941 1.86666666667 1.87450980392 1.88235294118 1.87450980392 1.86666666667 1.86666666667 1.85882352941 1.86666666667 1.86666666667 1.86666666667 1.85882352941 1.86666666667 1.87450980392 1.89019607843 1.87450980392 1.85882352941 1.85882352941 1.86666666667 1.85882352941 1.82745098039 1.81960784314 1.83529411765 1.82745098039 1.83529411765 1.80392156863 1.81960784314 1.89803921569 1.54509803922 1.49019607843 1.87450980392 1.82745098039 1.82745098039 1.83529411765 1.85098039216 1.85882352941 1.82745098039 1.82745098039 1.82745098039 1.83529411765 1.80392156863 1.81176470588 1.8431372549 1.81960784314 1.81176470588 1.8431372549
1.99215686275 1.99215686275 1.99215686275 1.98431372549 1.99215686275 1.99215686275 1.99215686275 1.99215686275 1.98431372549 1.95294117647 1.96078431373 1.98431372549 1.40392156863 1.09019607843 0.972549019608 1.15294117647 1.09019607843 1.09803921569 1.09803921569 1.07450980392 1.10588235294 1.09803921569 1.08235294118 0.909803921569 0.862745098039 0.81568627451 0.556862745098 0.517647058824 0.541176470588 0.509803921569 0.580392156863 0.933333333333 1.06666666667 1.09019607843 1.09019607843 1.06666666667 1.08235294118 1.08235294118 1.07450980392 1.08235294118 1.09803921569 1.1137254902 1.08235294118 1.08235294118 1.09019607843 1.10588235294 1.09019607843 1.13725490196 1.12156862745 1.50588235294 1.8431372549 1.80392156863 1.83529411765 1.83529411765 1.89019607843 1.86666666667 1.86666666667 1.86666666667 1.86666666667 1.85882352941 1.85882352941 1.85882352941 1.85882352941 1.85882352941 1.85882352941 1.85882352941 1.85098039216 1.85882352941 1.85882352941 1.85882352941 1.85882352941 1.85098039216 1.87450980392 1.87450980392 1.86666666667 1.86666666667 1.86666666667 1.85882352941 1.85882352941 1.85882352941 1.85882352941 1.85882352941 1.85882352941 1.85882352941 1.85882352941 1.86666666667 1.86666666667 1.86666666667 1.85882352941 1.85882352941 1.85882352941 1.85882352941 1.86666666667 1.86666666667 1.86666666667 1.86666666667 1.87450980392 1.86666666667 1.85098039216 1.85098039216 1.85098039216 1.83529411765 1.82745098039 1.82745098039 1.83529411765 1.0431372549 0.941176470588 1.79607843137 1.81960784314 1.85882352941 1.85882352941 1.82745098039 1.85882352941 1.86666666667 1.87450980392 1.85882352941 1.85882352941 1.86666666667 1.86666666667 1.85882352941 1.86666666667 1.88235294118 1.85098039216 1.85882352941 1.8431372549 1.8431372549 1.88235294118 1.83529411765 1.95294117647 1.65490196078 1.53725490196 1.7568627451 1.89803921569 1.86666666667 1.85098039216 1.86666666667 1.87450980392 1.87450980392 1.88235294118 1.88235294118 1.88235294118 1.86666666667 1.86666666667 1.87450980392 1.86666666667 1.85098039216 1.87450980392 1.85882352941 1.86666666667 1.85098039216 1.81960784314 1.9137254902 1.57647058824 1.45098039216 1.82745098039 1.85098039216 1.85098039216 1.85098039216 1.86666666667 1.85882352941 1.85882352941 1.85882352941 1.85882352941 1.86666666667 1.87450980392 1.88235294118 1.87450980392 1.87450980392 1.85882352941 1.85882352941 1.85882352941 1.85882352941 1.85098039216 1.85098039216 1.85882352941 1.86666666667 1.88235294118 1.87450980392 1.86666666667 1.85882352941 1.86666666667 1.86666666667 1.8431372549 1.83529411765 1.87450980392 1.87450980392 1.8431372549 1.81960784314 1.82745098039 1.83529411765 1.82745098039 1.45098039216 1.67843137255 1.86666666667 1.8431372549 1.82745098039 1.86666666667 1.8431372549 1.83529411765 1.80392156863 1.82745098039 1.77254901961 1.83529411765 1.81960784314 1.80392156863 1.85098039216 1.81960784314 1.82745098039
1.99215686275 1.99215686275 1.99215686275 1.99215686275 1.99215686275 1.99215686275 1.99215686275 1.99215686275 1.99215686275 1.95294117647 1.98431372549 1.92941176471 1.95294117647 1.74901960784 1.14509803922 0.917647058824 1.12156862745 1.07450980392 1.06666666667 1.10588235294 1.1137254902 1.09019607843 1.05098039216 0.933333333333 0.729411764706 0.556862745098 0.509803921569 0.572549019608 0.501960784314 0.588235294118 0.972549019608 1.07450980392 1.09019607843 1.05882352941 1.05882352941 1.09803921569 1.1137254902 1.09803921569 1.09019607843 1.09803921569 1.10588235294 1.10588235294 1.07450980392 1.09803921569 1.09019607843 1.08235294118 1.12156862745 1.1137254902 1.3568627451 1.78823529412 1.85882352941 1.81176470588 1.83529411765 1.85882352941 1.85098039216 1.87450980392 1.86666666667 1.86666666667 1.86666666667 1.85882352941 1.85882352941 1.85882352941 1.86666666667 1.86666666667 1.86666666667 1.86666666667 1.85882352941 1.85882352941 1.85882352941 1.86666666667 1.86666666667 1.86666666667 1.88235294118 1.87450980392 1.86666666667 1.86666666667 1.85882352941 1.85882352941 1.85882352941 1.85882352941 1.85882352941 1.86666666667 1.85882352941 1.85882352941 1.85882352941 1.86666666667 1.86666666667 1.86666666667 1.85882352941 1.85882352941 1.85882352941 1.85882352941 1.85882352941 1.85882352941 1.86666666667 1.86666666667 1.86666666667 1.86666666667 1.85098039216 1.85098039216 1.85098039216 1.8431372549 1.82745098039 1.83529411765 1.92156862745 1.30196078431 1.17647058824 1.79607843137 1.85882352941 1.85098039216 1.83529411765 1.86666666667 1.85882352941 1.86666666667 1.87450980392 1.86666666667 1.85882352941 1.86666666667 1.86666666667 1.85882352941 1.86666666667 1.87450980392 1.85098039216 1.87450980392 1.87450980392 1.83529411765 1.85882352941 1.86666666667 1.83529411765 1.88235294118 1.88235294118 1.88235294118 1.88235294118 1.85882352941 1.86666666667 1.87450980392 1.86666666667 1.86666666667 1.86666666667 1.87450980392 1.87450980392 1.86666666667 1.85882352941 1.86666666667 1.86666666667 1.85882352941 1.86666666667 1.85098039216 1.86666666667 1.85882352941 1.82745098039 1.89019607843 1.63921568627 1.42745098039 1.77254901961 1.86666666667 1.85098039216 1.8431372549 1.86666666667 1.85882352941 1.85882352941 1.85882352941 1.86666666667 1.86666666667 1.87450980392 1.88235294118 1.87450980392 1.87450980392 1.86666666667 1.86666666667 1.86666666667 1.86666666667 1.85882352941 1.85882352941 1.85882352941 1.86666666667 1.87450980392 1.87450980392 1.86666666667 1.85882352941 1.86666666667 1.86666666667 1.85098039216 1.85098039216 1.86666666667 1.85098039216 1.87450980392 1.85098039216 1.85882352941 1.81176470588 1.90588235294 1.6862745098 1.41176470588 1.76470588235 1.89019607843 1.83529411765 1.83529411765 1.81960784314 1.82745098039 1.89803921569 1.8431372549 1.88235294118 1.82745098039 1.85882352941 1.89019607843 1.8431372549 1.8431372549 1.80392156863
1.99215686275 1.99215686275 1.99215686275 1.99215686275 1.99215686275 1.99215686275 1.99215686275 1.99215686275 1.95294117647 1.99215686275 1.98431372549 1.96862745098 1.98431372549 1.96862745098 1.85098039216 1.29411764706 1.08235294118 1.03529411765 1.16862745098 1.05882352941 1.06666666667 1.05098039216 1.09803921569 0.839215686275 0.541176470588 0.509803921569 0.501960784314 0.549019607843 0.596078431373 0.956862745098 1.07450980392 1.05882352941 1.05882352941 1.05882352941 1.08235294118 1.1137254902 1.12156862745 1.10588235294 1.09019607843 1.09019607843 1.1137254902 1.09803921569 1.09019607843 1.1137254902 1.09803921569 1.1137254902 1.12156862745 1.21568627451 1.66274509804 1.8431372549 1.77254901961 1.85882352941 1.85098039216 1.87450980392 1.83529411765 1.87450980392 1.86666666667 1.86666666667 1.86666666667 1.86666666667 1.86666666667 1.86666666667 1.86666666667 1.86666666667 1.87450980392 1.87450980392 1.86666666667 1.86666666667 1.86666666667 1.87450980392 1.87450980392 1.88235294118 1.88235294118 1.87450980392 1.86666666667 1.85882352941 1.85882352941 1.85882352941 1.85882352941 1.85882352941 1.85882352941 1.85882352941 1.86666666667 1.86666666667 1.86666666667 1.86666666667 1.85882352941 1.85882352941 1.86666666667 1.85882352941 1.85882352941 1.85882352941 1.86666666667 1.86666666667 1.86666666667 1.85882352941 1.86666666667 1.86666666667 1.85882352941 1.85098039216 1.85882352941 1.85098039216 1.8431372549 1.8431372549 1.8431372549 1.7568627451 1.73333333333 1.79607843137 1.82745098039 1.81176470588 1.86666666667 1.87450980392 1.85882352941 1.86666666667 1.86666666667 1.86666666667 1.85882352941 1.85882352941 1.85882352941 1.85098039216 1.85098039216 1.85882352941 1.85098039216 1.87450980392 1.86666666667 1.8431372549 1.85882352941 1.86666666667 1.85098039216 1.87450980392 1.85098039216 1.85098039216 1.87450980392 1.86666666667 1.87450980392 1.88235294118 1.85882352941 1.85882352941 1.85882352941 1.86666666667 1.86666666667 1.85882352941 1.85882352941 1.86666666667 1.86666666667 1.85882352941 1.85882352941 1.85098039216 1.86666666667 1.86666666667 1.8431372549 1.86666666667 1.72549019608 1.42745098039 1.70980392157 1.89019607843 1.85098039216 1.83529411765 1.85882352941 1.85098039216 1.85882352941 1.85882352941 1.86666666667 1.86666666667 1.87450980392 1.87450980392 1.87450980392 1.87450980392 1.88235294118 1.87450980392 1.87450980392 1.87450980392 1.86666666667 1.86666666667 1.86666666667 1.87450980392 1.86666666667 1.87450980392 1.86666666667 1.85882352941 1.85882352941 1.85882352941 1.85098039216 1.85098039216 1.83529411765 1.8431372549 1.87450980392 1.88235294118 1.86666666667 1.85098039216 1.83529411765 1.90588235294 1.6 1.33333333333 1.69411764706 1.89019607843 1.78823529412 1.85098039216 1.83529411765 1.83529411765 1.83529411765 1.83529411765 1.85098039216 1.82745098039 1.81960784314 1.85098039216 1.85098039216 1.81960784314
1.99215686275 1.99215686275 2.0 2.0 2.0 2.0 1.99215686275 1.99215686275 2.0 1.98431372549 1.96862745098 1.99215686275 1.96078431373 1.96862745098 1.98431372549 1.94509803922 1.6862745098 1.09019607843 0.917647058824 1.12156862745 1.09019607843 1.0431372549 1.07450980392 0.8 0.517647058824 0.517647058824 0.509803921569 0.596078431373 0.933333333333 1.09803921569 1.03529411765 1.05882352941 1.08235294118 1.1137254902 1.1137254902 1.09803921569 1.10588235294 1.09803921569 1.09019607843 1.10588235294 1.09803921569 1.10588235294 1.10588235294 1.08235294118 1.09803921569 1.13725490196 1.1137254902 1.52156862745 1.81176470588 1.82745098039 1.8431372549 1.85882352941 1.85882352941 1.85882352941 1.87450980392 1.86666666667 1.85882352941 1.85882352941 1.86666666667 1.86666666667 1.86666666667 1.86666666667 1.86666666667 1.86666666667 1.86666666667 1.85882352941 1.85882352941 1.85882352941 1.85882352941 1.86666666667 1.87450980392 1.87450980392 1.88235294118 1.87450980392 1.86666666667 1.85882352941 1.85882352941 1.85882352941 1.85882352941 1.85882352941 1.85882352941 1.85882352941 1.86666666667 1.86666666667 1.86666666667 1.86666666667 1.85098039216 1.85098039216 1.85882352941 1.85882352941 1.85882352941 1.85882352941 1.85882352941 1.85882352941 1.85098039216 1.85098039216 1.85882352941 1.86666666667 1.86666666667 1.85882352941 1.85882352941 1.85882352941 1.85098039216 1.85098039216 1.87450980392 1.90588235294 1.89019607843 1.81176470588 1.89019607843 1.8431372549 1.85882352941 1.85882352941 1.85882352941 1.85882352941 1.86666666667 1.86666666667 1.87450980392 1.86666666667 1.85882352941 1.85098039216 1.85882352941 1.85098039216 1.85882352941 1.86666666667 1.85882352941 1.85882352941 1.87450980392 1.85098039216 1.8431372549 1.85882352941 1.8431372549 1.8431372549 1.85098039216 1.85098039216 1.87450980392 1.86666666667 1.85882352941 1.86666666667 1.86666666667 1.86666666667 1.86666666667 1.85882352941 1.86666666667 1.87450980392 1.85882352941 1.85882352941 1.85882352941 1.85098039216 1.86666666667 1.87450980392 1.85098039216 1.85882352941 1.79607843137 1.42745098039 1.64705882353 1.89803921569 1.8431372549 1.83529411765 1.85098039216 1.85098039216 1.85882352941 1.85882352941 1.86666666667 1.87450980392 1.87450980392 1.87450980392 1.87450980392 1.87450980392 1.88235294118 1.87450980392 1.86666666667 1.86666666667 1.86666666667 1.85882352941 1.85882352941 1.86666666667 1.86666666667 1.87450980392 1.86666666667 1.85882352941 1.85882352941 1.85882352941 1.85098039216 1.85098039216 1.85098039216 1.90588235294 1.83529411765 1.88235294118 1.8431372549 1.89019607843 1.86666666667 1.85098039216 1.90588235294 1.63137254902 1.25490196078 1.47450980392 1.88235294118 1.85882352941 1.78823529412 1.83529411765 1.82745098039 1.81960784314 1.81960784314 1.85882352941 1.85882352941 1.78823529412 1.77254901961 1.8431372549
1.99215686275 1.99215686275 2.0 2.0 2.0 2.0 1.99215686275 1.99215686275 2.0 1.97647058824 1.99215686275 1.97647058824 1.99215686275 1.98431372549 1.96862745098 1.97647058824 1.97647058824 1.72549019608 1.38039215686 1.01176470588 1.05882352941 1.10588235294 1.06666666667 0.807843137255 0.509803921569 0.494117647059 0.619607843137 1.00392156863 1.06666666667 1.07450980392 1.06666666667 1.07450980392 1.09019607843 1.09803921569 1.09019607843 1.09019607843 1.1137254902 1.09803921569 1.09019607843 1.12156862745 1.10588235294 1.09803921569 1.1137254902 1.08235294118 1.13725490196 1.08235294118 1.38823529412 1.77254901961 1.82745098039 1.81960784314 1.86666666667 1.87450980392 1.85098039216 1.87450980392 1.85098039216 1.85098039216 1.85882352941 1.85882352941 1.85882352941 1.86666666667 1.86666666667 1.86666666667 1.86666666667 1.86666666667 1.85882352941 1.85882352941 1.85882352941 1.85882352941 1.86666666667 1.86666666667 1.87450980392 1.87450980392 1.87450980392 1.86666666667 1.86666666667 1.85882352941 1.85882352941 1.85882352941 1.85882352941 1.85882352941 1.85882352941 1.85882352941 1.86666666667 1.86666666667 1.86666666667 1.86666666667 1.85098039216 1.85098039216 1.85098039216 1.85098039216 1.85098039216 1.85882352941 1.85882352941 1.85882352941 1.85098039216 1.8431372549 1.85882352941 1.86666666667 1.86666666667 1.85882352941 1.86666666667 1.85882352941 1.85882352941 1.85882352941 1.85098039216 1.85882352941 1.83529411765 1.85098039216 1.85882352941 1.86666666667 1.85098039216 1.87450980392 1.86666666667 1.86666666667 1.86666666667 1.86666666667 1.87450980392 1.87450980392 1.86666666667 1.85882352941 1.87450980392 1.85882352941 1.86666666667 1.86666666667 1.85098039216 1.86666666667 1.87450980392 1.8431372549 1.86666666667 1.85882352941 1.85882352941 1.88235294118 1.86666666667 1.86666666667 1.88235294118 1.85882352941 1.85882352941 1.85882352941 1.85882352941 1.85882352941 1.85882352941 1.85882352941 1.85882352941 1.87450980392 1.85882352941 1.86666666667 1.85882352941 1.85882352941 1.86666666667 1.86666666667 1.85098039216 1.8431372549 1.8431372549 1.43529411765 1.58431372549 1.89019607843 1.83529411765 1.8431372549 1.85882352941 1.85882352941 1.85882352941 1.86666666667 1.86666666667 1.87450980392 1.87450980392 1.87450980392 1.87450980392 1.87450980392 1.89019607843 1.87450980392 1.86666666667 1.86666666667 1.86666666667 1.86666666667 1.86666666667 1.86666666667 1.87450980392 1.88235294118 1.87450980392 1.85882352941 1.85882352941 1.86666666667 1.85882352941 1.85098039216 1.85882352941 1.89019607843 1.85882352941 1.85098039216 1.86666666667 1.88235294118 1.86666666667 1.83529411765 1.85098039216 1.89803921569 1.71764705882 1.41176470588 1.27058823529 1.53725490196 1.88235294118 1.89019607843 1.81176470588 1.85098039216 1.81960784314 1.83529411765 1.80392156863 1.85098039216 1.88235294118 1.6
1.99215686275 1.99215686275 2.0 2.0 2.0 2.0 2.0 2.0 1.97647058824 2.0 2.0 1.99215686275 1.98431372549 2.0 1.99215686275 1.96862745098 1.95294117647 1.98431372549 1.92941176471 1.73333333333 1.09803921569 0.878431372549 1.15294117647 0.886274509804 0.541176470588 0.627450980392 0.964705882353 1.13725490196 1.09019607843 1.07450980392 1.07450980392 1.09803921569 1.09803921569 1.08235294118 1.08235294118 1.09803921569 1.10588235294 1.09019607843 1.08235294118 1.09019607843 1.1137254902 1.08235294118 1.09803921569 1.10588235294 1.14509803922 1.21568627451 1.70980392157 1.83529411765 1.82745098039 1.81960784314 1.83529411765 1.87450980392 1.86666666667 1.88235294118 1.82745098039 1.85098039216 1.85882352941 1.85882352941 1.85882352941 1.86666666667 1.86666666667 1.86666666667 1.85882352941 1.85882352941 1.86666666667 1.86666666667 1.86666666667 1.87450980392 1.87450980392 1.88235294118 1.88235294118 1.88235294118 1.86666666667 1.86666666667 1.85882352941 1.85882352941 1.85882352941 1.86666666667 1.86666666667 1.85882352941 1.86666666667 1.85882352941 1.85882352941 1.86666666667 1.86666666667 1.85882352941 1.85098039216 1.85882352941 1.85882352941 1.85882352941 1.85882352941 1.85882352941 1.85882352941 1.85882352941 1.85882352941 1.85098039216 1.85098039216 1.86666666667 1.86666666667 1.85882352941 1.85882352941 1.85882352941 1.85882352941 1.85882352941 1.86666666667 1.87450980392 1.88235294118 1.89019607843 1.82745098039 1.85098039216 1.85098039216 1.88235294118 1.87450980392 1.86666666667 1.86666666667 1.87450980392 1.87450980392 1.87450980392 1.86666666667 1.85882352941 1.86666666667 1.86666666667 1.86666666667 1.85882352941 1.85882352941 1.86666666667 1.85882352941 1.85882352941 1.8431372549 1.85882352941 1.85882352941 1.85882352941 1.8431372549 1.85098039216 1.88235294118 1.86666666667 1.85098039216 1.85882352941 1.85098039216 1.85098039216 1.85882352941 1.85098039216 1.85098039216 1.86666666667 1.86666666667 1.86666666667 1.85882352941 1.87450980392 1.86666666667 1.85882352941 1.8431372549 1.83529411765 1.87450980392 1.45882352941 1.55294117647 1.89019607843 1.82745098039 1.85098039216 1.85882352941 1.85882352941 1.85882352941 1.86666666667 1.86666666667 1.87450980392 1.87450980392 1.87450980392 1.87450980392 1.88235294118 1.89019607843 1.88235294118 1.86666666667 1.86666666667 1.86666666667 1.86666666667 1.86666666667 1.86666666667 1.87450980392 1.88235294118 1.87450980392 1.86666666667 1.86666666667 1.87450980392 1.86666666667 1.85098039216 1.85098039216 1.83529411765 1.88235294118 1.85098039216 1.88235294118 1.85882352941 1.82745098039 1.89019607843 1.85882352941 1.86666666667 1.87450980392 1.83529411765 1.60784313725 1.3568627451 1.31764705882 1.41960784314 1.63921568627 1.78039215686 1.86666666667 1.79607843137 1.69411764706 1.56078431373 1.27843137255 1.01960784314
1.99215686275 1.99215686275 2.0 2.0 2.0 2.0 2.0 2.0 2.0 1.98431372549 2.0 1.95294117647 2.0 1.97647058824 2.0 1.97647058824 2.0 1.94509803922 1.98431372549 1.97647058824 1.90588235294 1.52156862745 0.886274509804 0.682352941176 0.650980392157 0.988235294118 1.06666666667 1.07450980392 1.05882352941 1.07450980392 1.07450980392 1.06666666667 1.09803921569 1.08235294118 1.09803921569 1.09803921569 1.08235294118 1.09803921569 1.12156862745 1.09803921569 1.1137254902 1.09019607843 1.08235294118 1.12156862745 1.08235294118 1.53725490196 1.78039215686 1.82745098039 1.81960784314 1.8431372549 1.90588235294 1.83529411765 1.88235294118 1.8431372549 1.89019607843 1.86666666667 1.85882352941 1.85882352941 1.85882352941 1.86666666667 1.86666666667 1.85882352941 1.85882352941 1.85882352941 1.85882352941 1.85882352941 1.86666666667 1.86666666667 1.87450980392 1.87450980392 1.87450980392 1.87450980392 1.85882352941 1.85882352941 1.85882352941 1.85882352941 1.86666666667 1.86666666667 1.86666666667 1.85882352941 1.86666666667 1.85882352941 1.85882352941 1.85882352941 1.85882352941 1.85882352941 1.85882352941 1.86666666667 1.85882352941 1.85882352941 1.85882352941 1.85882352941 1.85882352941 1.85882352941 1.85882352941 1.85882352941 1.85098039216 1.85882352941 1.86666666667 1.85882352941 1.85882352941 1.85882352941 1.85882352941 1.85882352941 1.87450980392 1.86666666667 1.89019607843 1.85098039216 1.87450980392 1.86666666667 1.87450980392 1.85882352941 1.86666666667 1.86666666667 1.85882352941 1.86666666667 1.86666666667 1.86666666667 1.85882352941 1.85882352941 1.85882352941 1.86666666667 1.85882352941 1.85098039216 1.87450980392 1.85882352941 1.8431372549 1.88235294118 1.85098039216 1.86666666667 1.85098039216 1.86666666667 1.86666666667 1.85882352941 1.86666666667 1.85098039216 1.86666666667 1.86666666667 1.86666666667 1.86666666667 1.86666666667 1.86666666667 1.86666666667 1.88235294118 1.87450980392 1.87450980392 1.86666666667 1.88235294118 1.86666666667 1.85098039216 1.8431372549 1.82745098039 1.89803921569 1.48235294118 1.55294117647 1.89019607843 1.82745098039 1.85098039216 1.85882352941 1.85882352941 1.85882352941 1.86666666667 1.87450980392 1.87450980392 1.87450980392 1.87450980392 1.87450980392 1.88235294118 1.88235294118 1.86666666667 1.85882352941 1.85882352941 1.85882352941 1.85882352941 1.85098039216 1.85882352941 1.86666666667 1.87450980392 1.87450980392 1.85882352941 1.86666666667 1.87450980392 1.86666666667 1.85098039216 1.85882352941 1.83529411765 1.86666666667 1.86666666667 1.8431372549 1.85882352941 1.87450980392 1.85098039216 1.85098039216 1.83529411765 1.86666666667 1.85882352941 1.88235294118 1.85882352941 1.67058823529 1.56078431373 1.33333333333 1.26274509804 1.00392156863 0.917647058824 0.964705882353 0.964705882353 1.03529411765 1.08235294118
1.99215686275 1.99215686275 2.0 2.0 2.0 2.0 2.0 2.0 2.0 2.0 1.99215686275 1.99215686275 2.0 1.99215686275 1.98431372549 1.98431372549 1.99215686275 1.97647058824 1.97647058824 1.98431372549 1.96078431373 1.96862745098 1.74901960784 0.901960784314 0.886274509804 1.09803921569 1.06666666667 1.06666666667 1.08235294118 1.0431372549 1.08235294118 1.07450980392 1.07450980392 1.09803921569 1.09019607843 1.06666666667 1.09019607843 1.1137254902 1.1137254902 1.10588235294 1.09019607843 1.09803921569 1.09019607843 1.12941176471 1.23137254902 1.74117647059 1.76470588235 1.81960784314 1.85882352941 1.86666666667 1.86666666667 1.85882352941 1.85882352941 1.85882352941 1.86666666667 1.86666666667 1.86666666667 1.86666666667 1.86666666667 1.85882352941 1.85882352941 1.86666666667 1.86666666667 1.86666666667 1.85098039216 1.85098039216 1.85098039216 1.85882352941 1.85882352941 1.86666666667 1.87450980392 1.87450980392 1.85882352941 1.85882352941 1.85882352941 1.85098039216 1.85882352941 1.85882352941 1.86666666667 1.87450980392 1.85882352941 1.86666666667 1.86666666667 1.85882352941 1.85098039216 1.85098039216 1.85098039216 1.85882352941 1.8431372549 1.8431372549 1.85882352941 1.8431372549 1.85098039216 1.88235294118 1.87450980392 1.85882352941 1.85098039216 1.86666666667 1.85882352941 1.85098039216 1.86666666667 1.85882352941 1.8431372549 1.85882352941 1.85882352941 1.85098039216 1.86666666667 1.87450980392 1.87450980392 1.87450980392 1.88235294118 1.89019607843 1.88235294118 1.87450980392 1.87450980392 1.87450980392 1.87450980392 1.86666666667 1.85882352941 1.85098039216 1.85882352941 1.85882352941 1.85882352941 1.85882352941 1.85882352941 1.85882352941 1.85882352941 1.85882352941 1.86666666667 1.86666666667 1.86666666667 1.87450980392 1.87450980392 1.87450980392 1.87450980392 1.87450980392 1.88235294118 1.87450980392 1.86666666667 1.87450980392 1.87450980392 1.88235294118 1.87450980392 1.87450980392 1.87450980392 1.87450980392 1.86666666667 1.86666666667 1.86666666667 1.85882352941 1.8431372549 1.82745098039 1.90588235294 1.53725490196 1.52941176471 1.86666666667 1.83529411765 1.81960784314 1.86666666667 1.8431372549 1.85882352941 1.87450980392 1.86666666667 1.85882352941 1.85882352941 1.86666666667 1.87450980392 1.88235294118 1.88235294118 1.85882352941 1.85098039216 1.85882352941 1.85098039216 1.85098039216 1.85882352941 1.86666666667 1.88235294118 1.8431372549 1.86666666667 1.88235294118 1.85098039216 1.83529411765 1.8431372549 1.85882352941 1.81176470588 1.85098039216 1.8431372549 1.87450980392 1.86666666667 1.85882352941 1.86666666667 1.83529411765 1.85882352941 1.85882352941 1.86666666667 1.85098039216 1.82745098039 1.8431372549 1.85882352941 1.81176470588 1.78039215686 1.81176470588 1.26274509804 1.01176470588 1.08235294118 1.07450980392 1.10588235294 1.10588235294
1.99215686275 1.99215686275 2.0 2.0 2.0 2.0 2.0 2.0 2.0 2.0 1.99215686275 1.99215686275 2.0 1.99215686275 1.99215686275 1.98431372549 1.98431372549 1.99215686275 1.99215686275 1.99215686275 1.95294117647 1.97647058824 1.96862745098 1.22352941176 0.996078431373 1.08235294118 1.07450980392 1.06666666667 1.08235294118 1.07450980392 1.08235294118 1.08235294118 1.10588235294 1.05098039216 1.06666666667 1.10588235294 1.08235294118 1.06666666667 1.08235294118 1.09019607843 1.09019607843 1.09019607843 1.12156862745 1.05882352941 1.42745098039 1.77254901961 1.87450980392 1.80392156863 1.82745098039 1.86666666667 1.89019607843 1.86666666667 1.85098039216 1.85098039216 1.85882352941 1.86666666667 1.86666666667 1.87450980392 1.86666666667 1.85882352941 1.85882352941 1.86666666667 1.87450980392 1.87450980392 1.85882352941 1.85882352941 1.85882352941 1.85882352941 1.85882352941 1.86666666667 1.87450980392 1.86666666667 1.85882352941 1.85882352941 1.85882352941 1.85882352941 1.85882352941 1.85882352941 1.86666666667 1.86666666667 1.85882352941 1.85882352941 1.86666666667 1.86666666667 1.85882352941 1.85882352941 1.86666666667 1.86666666667 1.89019607843 1.87450980392 1.85098039216 1.86666666667 1.88235294118 1.85882352941 1.8431372549 1.89019607843 1.85882352941 1.8431372549 1.85882352941 1.86666666667 1.85882352941 1.85098039216 1.85882352941 1.86666666667 1.86666666667 1.8431372549 1.85098039216 1.87450980392 1.88235294118 1.87450980392 1.86666666667 1.86666666667 1.86666666667 1.85882352941 1.85882352941 1.85882352941 1.86666666667 1.86666666667 1.85882352941 1.85098039216 1.85882352941 1.85882352941 1.85882352941 1.86666666667 1.85882352941 1.85882352941 1.85882352941 1.85882352941 1.86666666667 1.85882352941 1.85882352941 1.86666666667 1.86666666667 1.87450980392 1.87450980392 1.87450980392 1.87450980392 1.87450980392 1.87450980392 1.87450980392 1.87450980392 1.87450980392 1.87450980392 1.87450980392 1.87450980392 1.87450980392 1.86666666667 1.86666666667 1.86666666667 1.85882352941 1.8431372549 1.82745098039 1.90588235294 1.56862745098 1.53725490196 1.8431372549 1.8431372549 1.83529411765 1.85882352941 1.85882352941 1.85882352941 1.86666666667 1.86666666667 1.85882352941 1.85882352941 1.85882352941 1.86666666667 1.87450980392 1.87450980392 1.85882352941 1.85882352941 1.86666666667 1.87450980392 1.86666666667 1.87450980392 1.87450980392 1.89803921569 1.86666666667 1.88235294118 1.81960784314 1.86666666667 1.66274509804 1.40392156863 1.74117647059 1.90588235294 1.8431372549 1.86666666667 1.85882352941 1.85882352941 1.8431372549 1.87450980392 1.86666666667 1.89803921569 1.86666666667 1.85882352941 1.86666666667 1.85098039216 1.83529411765 1.81176470588 1.78823529412 1.79607843137 1.85882352941 1.41960784314 1.08235294118 1.14509803922 1.14509803922 1.10588235294 1.06666666667
2.0 2.0 2.0 2.0 2.0 2.0 2.0 2.0 2.0 2.0 2.0 2.0 2.0 2.0 1.99215686275 1.99215686275 1.99215686275 1.99215686275 1.96862745098 1.99215686275 1.97647058824 1.97647058824 1.98431372549 1.16862745098 1.0431372549 1.07450980392 1.10588235294 1.09803921569 1.07450980392 1.05882352941 1.03529411765 1.05098039216 1.05098039216 1.09019607843 1.09019607843 1.07450980392 1.09019607843 1.09019607843 1.08235294118 1.09019607843 1.09803921569 1.05098039216 1.1137254902 1.07450980392 1.45882352941 1.79607843137 1.78039215686 1.81960784314 1.83529411765 1.8431372549 1.85098039216 1.86666666667 1.88235294118 1.88235294118 1.87450980392 1.85882352941 1.86666666667 1.86666666667 1.86666666667 1.85098039216 1.85098039216 1.85882352941 1.86666666667 1.86666666667 1.86666666667 1.86666666667 1.86666666667 1.86666666667 1.86666666667 1.85882352941 1.85882352941 1.85098039216 1.85882352941 1.85882352941 1.85882352941 1.85882352941 1.85882352941 1.85882352941 1.85882352941 1.85882352941 1.85882352941 1.85882352941 1.86666666667 1.86666666667 1.87450980392 1.86666666667 1.87450980392 1.87450980392 1.85098039216 1.85882352941 1.86666666667 1.86666666667 1.8431372549 1.85098039216 1.88235294118 1.85098039216 1.86666666667 1.85098039216 1.82745098039 1.85098039216 1.88235294118 1.85882352941 1.8431372549 1.88235294118 1.83529411765 1.85098039216 1.85098039216 1.8431372549 1.85098039216 1.86666666667 1.86666666667 1.85882352941 1.85882352941 1.85098039216 1.85098039216 1.85882352941 1.85882352941 1.86666666667 1.85882352941 1.85098039216 1.85882352941 1.85882352941 1.86666666667 1.86666666667 1.86666666667 1.86666666667 1.86666666667 1.86666666667 1.86666666667 1.85882352941 1.85098039216 1.85098039216 1.85882352941 1.86666666667 1.87450980392 1.87450980392 1.86666666667 1.87450980392 1.88235294118 1.87450980392 1.86666666667 1.86666666667 1.87450980392 1.88235294118 1.87450980392 1.87450980392 1.86666666667 1.86666666667 1.86666666667 1.85882352941 1.8431372549 1.83529411765 1.89803921569 1.60784313725 1.54509803922 1.81960784314 1.85882352941 1.85098039216 1.85098039216 1.86666666667 1.85098039216 1.86666666667 1.86666666667 1.85882352941 1.85882352941 1.85882352941 1.85882352941 1.86666666667 1.85882352941 1.85098039216 1.85882352941 1.88235294118 1.88235294118 1.88235294118 1.88235294118 1.88235294118 1.85098039216 1.89019607843 1.86666666667 1.87450980392 1.86666666667 1.88235294118 1.71764705882 1.27058823529 1.52156862745 1.80392156863 1.85098039216 1.89019607843 1.87450980392 1.86666666667 1.8431372549 1.81176470588 1.85882352941 1.85098039216 1.8431372549 1.8431372549 1.82745098039 1.81176470588 1.80392156863 1.81960784314 1.79607843137 1.83529411765 1.41176470588 1.03529411765 1.1137254902 1.08235294118 1.07450980392 1.10588235294
